# .PCD v0.7 - Point Cloud Data file format
VERSION 0.7
FIELDS x y z
SIZE 4 4 4
TYPE F F F
COUNT 1 1 1
WIDTH 1849
HEIGHT 1
VIEWPOINT 0 0 0 1 0 0 0
POINTS 1849
DATA ascii
-0.012 0.084912 -0.008784
-0.012 0.085888 -0.00976
-0.012 0.086864 -0.00976
-0.012 0.08784 -0.010736
-0.012 0.088816 -0.010736
-0.012 0.089792 -0.011712
-0.012 0.090768 -0.011712
-0.012 0.091744 -0.012688
-0.012 0.09272 -0.012688
-0.012 0.093696 -0.013664
-0.012 0.094672 -0.013664
-0.012 0.0976 -0.016592
-0.012 0.098576 -0.016592
-0.012 0.101504 -0.01952
-0.012 0.10248 -0.01952
-0.012 0.11224 -0.02928
-0.012 0.116144 -0.03416
-0.012 0.118096 -0.037088
-0.012 0.120048 -0.040016
-0.012 0.121024 -0.041968
-0.012 0.122976 -0.044896
-0.012 0.123952 -0.046848
-0.012 0.124928 -0.0488
-0.012 0.125904 -0.051728
-0.012 0.12688 -0.05368
-0.012 0.127856 -0.055632
-0.012 0.128832 -0.05856
-0.012 0.129808 -0.060512
-0.012 0.130784 -0.064416
-0.012 0.13176 -0.067344
-0.012 0.132736 -0.070272
-0.012 0.133712 -0.074176
-0.012 0.134688 -0.079056
-0.012 0.135664 -0.08296
-0.012 0.13664 -0.088816
-0.012 0.137616 -0.094672
-0.012 0.138592 -0.101504
-0.015 -0.134688 -0.108336
-0.015 -0.133712 -0.096624
-0.015 -0.132736 -0.090768
-0.015 -0.13176 -0.085888
-0.015 -0.130784 -0.081984
-0.015 -0.129808 -0.077104
-0.015 -0.128832 -0.074176
-0.015 -0.127856 -0.070272
-0.015 -0.12688 -0.067344
-0.015 -0.125904 -0.064416
-0.015 -0.124928 -0.061488
-0.015 -0.123952 -0.059536
-0.015 -0.122976 -0.056608
-0.015 -0.122 -0.054656
-0.015 -0.121024 -0.051728
-0.015 -0.120048 -0.049776
-0.015 -0.119072 -0.047824
-0.015 -0.118096 -0.045872
-0.015 -0.11712 -0.04392
-0.015 -0.116144 -0.041968
-0.015 -0.115168 -0.040016
-0.015 -0.113216 -0.037088
-0.015 -0.111264 -0.03416
-0.015 -0.0976 -0.020496
-0.015 -0.096624 -0.020496
-0.015 -0.094672 -0.018544
-0.015 -0.093696 -0.018544
-0.015 -0.091744 -0.016592
-0.015 -0.090768 -0.016592
-0.015 -0.089792 -0.015616
-0.015 -0.088816 -0.015616
-0.015 -0.086864 -0.013664
-0.015 -0.085888 -0.013664
-0.015 -0.084912 -0.012688
-0.015 -0.083936 -0.012688
-0.015 -0.08296 -0.011712
-0.015 -0.081984 -0.011712
-0.015 -0.081008 -0.010736
-0.015 -0.080032 -0.010736
-0.015 -0.079056 -0.00976
-0.015 -0.077104 -0.00976
-0.015 -0.076128 -0.008784
-0.015 -0.075152 -0.008784
-0.015 -0.074176 -0.007808
-0.015 -0.072224 -0.007808
-0.015 -0.071248 -0.006832
-0.015 -0.069296 -0.006832
-0.015 -0.06832 -0.005856
-0.015 -0.066368 -0.005856
-0.015 -0.065392 -0.00488
-0.015 -0.062464 -0.00488
-0.015 -0.061488 -0.003904
-0.015 -0.05856 -0.003904
-0.015 -0.057584 -0.002928
-0.015 -0.054656 -0.002928
-0.015 -0.05368 -0.001952
-0.015 -0.049776 -0.001952
-0.015 -0.0488 -0.000976
-0.015 -0.04392 -0.000976
-0.015 -0.042944 -0
-0.015 -0.035136 -0
-0.015 -0.03416 0.000976
-0.015 -0.0244 0.000976
-0.015 -0.023424 0.001952
-0.015 -0.011712 0.001952
-0.015 -0.010736 0.002928
-0.015 0.027328 0.002928
-0.015 0.028304 0.001952
-0.015 0.038064 0.001952
-0.015 0.03904 0.000976
-0.015 0.046848 0.000976
-0.015 0.047824 -0
-0.015 0.052704 -0
-0.015 0.05368 -0.000976
-0.015 0.05856 -0.000976
-0.015 0.059536 -0.001952
-0.015 0.06344 -0.001952
-0.015 0.064416 -0.002928
-0.015 0.067344 -0.002928
-0.015 0.06832 -0.003904
-0.015 0.070272 -0.003904
-0.015 0.071248 -0.00488
-0.015 0.074176 -0.00488
-0.015 0.075152 -0.005856
-0.015 0.077104 -0.005856
-0.015 0.07808 -0.006832
-0.015 0.080032 -0.006832
-0.015 0.081008 -0.007808
-0.015 0.081984 -0.007808
-0.015 0.08296 -0.008784
-0.015 0.084912 -0.008784
-0.015 0.085888 -0.00976
-0.015 0.086864 -0.00976
-0.015 0.08784 -0.010736
-0.015 0.088816 -0.010736
-0.015 0.089792 -0.011712
-0.015 0.090768 -0.011712
-0.015 0.09272 -0.013664
-0.015 0.093696 -0.013664
-0.015 0.094672 -0.01464
-0.015 0.095648 -0.01464
-0.015 0.098576 -0.017568
-0.015 0.099552 -0.017568
-0.015 0.10248 -0.020496
-0.015 0.103456 -0.020496
-0.015 0.110288 -0.027328
-0.015 0.115168 -0.033184
-0.015 0.11712 -0.036112
-0.015 0.119072 -0.03904
-0.015 0.121024 -0.041968
-0.015 0.122 -0.04392
-0.015 0.122976 -0.045872
-0.015 0.123952 -0.047824
-0.015 0.124928 -0.049776
-0.015 0.125904 -0.051728
-0.015 0.12688 -0.054656
-0.015 0.127856 -0.056608
-0.015 0.128832 -0.059536
-0.015 0.129808 -0.061488
-0.015 0.130784 -0.064416
-0.015 0.13176 -0.06832
-0.015 0.132736 -0.071248
-0.015 0.133712 -0.075152
-0.015 0.134688 -0.080032
-0.015 0.135664 -0.083936
-0.015 0.13664 -0.088816
-0.015 0.137616 -0.095648
-0.015 0.138592 -0.103456
-0.018 -0.134688 -0.110288
-0.018 -0.133712 -0.0976
-0.018 -0.132736 -0.090768
-0.018 -0.13176 -0.085888
-0.018 -0.130784 -0.081984
-0.018 -0.129808 -0.07808
-0.018 -0.128832 -0.074176
-0.018 -0.127856 -0.070272
-0.018 -0.12688 -0.067344
-0.018 -0.125904 -0.064416
-0.018 -0.124928 -0.061488
-0.018 -0.123952 -0.059536
-0.018 -0.122976 -0.056608
-0.018 -0.122 -0.054656
-0.018 -0.121024 -0.051728
-0.018 -0.120048 -0.049776
-0.018 -0.119072 -0.047824
-0.018 -0.118096 -0.045872
-0.018 -0.11712 -0.04392
-0.018 -0.116144 -0.041968
-0.018 -0.115168 -0.040016
-0.018 -0.113216 -0.037088
-0.018 -0.111264 -0.03416
-0.018 -0.10736 -0.02928
-0.018 -0.10248 -0.0244
-0.018 -0.101504 -0.0244
-0.018 -0.0976 -0.020496
-0.018 -0.096624 -0.020496
-0.018 -0.094672 -0.018544
-0.018 -0.093696 -0.018544
-0.018 -0.091744 -0.016592
-0.018 -0.090768 -0.016592
-0.018 -0.088816 -0.01464
-0.018 -0.08784 -0.01464
-0.018 -0.086864 -0.013664
-0.018 -0.085888 -0.013664
-0.018 -0.084912 -0.012688
-0.018 -0.083936 -0.012688
-0.018 -0.08296 -0.011712
-0.018 -0.081984 -0.011712
-0.018 -0.081008 -0.010736
-0.018 -0.080032 -0.010736
-0.018 -0.079056 -0.00976
-0.018 -0.07808 -0.00976
-0.018 -0.077104 -0.008784
-0.018 -0.075152 -0.008784
-0.018 -0.074176 -0.007808
-0.018 -0.072224 -0.007808
-0.018 -0.071248 -0.006832
-0.018 -0.069296 -0.006832
-0.018 -0.06832 -0.005856
-0.018 -0.066368 -0.005856
-0.018 -0.065392 -0.00488
-0.018 -0.062464 -0.00488
-0.018 -0.061488 -0.003904
-0.018 -0.05856 -0.003904
-0.018 -0.057584 -0.002928
-0.018 -0.054656 -0.002928
-0.018 -0.05368 -0.001952
-0.018 -0.049776 -0.001952
-0.018 -0.0488 -0.000976
-0.018 -0.04392 -0.000976
-0.018 -0.042944 -0
-0.018 -0.035136 -0
-0.018 -0.03416 0.000976
-0.018 -0.0244 0.000976
-0.018 -0.023424 0.001952
-0.018 -0.012688 0.001952
-0.018 -0.011712 0.002928
-0.018 0.027328 0.002928
-0.018 0.028304 0.001952
-0.018 0.03904 0.001952
-0.018 0.040016 0.000976
-0.018 0.046848 0.000976
-0.018 0.047824 -0
-0.018 0.05368 -0
-0.018 0.054656 -0.000976
-0.018 0.05856 -0.000976
-0.018 0.059536 -0.001952
-0.018 0.06344 -0.001952
-0.018 0.064416 -0.002928
-0.018 0.067344 -0.002928
-0.018 0.06832 -0.003904
-0.018 0.071248 -0.003904
-0.018 0.072224 -0.00488
-0.018 0.074176 -0.00488
-0.018 0.075152 -0.005856
-0.018 0.077104 -0.005856
-0.018 0.07808 -0.006832
-0.018 0.080032 -0.006832
-0.018 0.081008 -0.007808
-0.018 0.08296 -0.007808
-0.018 0.083936 -0.008784
-0.018 0.084912 -0.008784
-0.018 0.085888 -0.00976
-0.018 0.086864 -0.00976
-0.018 0.08784 -0.010736
-0.018 0.088816 -0.010736
-0.018 0.089792 -0.011712
-0.018 0.090768 -0.011712
-0.018 0.091744 -0.012688
-0.018 0.09272 -0.012688
-0.018 0.094672 -0.01464
-0.018 0.095648 -0.01464
-0.018 0.0976 -0.016592
-0.018 0.098576 -0.016592
-0.018 0.101504 -0.01952
-0.018 0.10248 -0.01952
-0.018 0.113216 -0.030256
-0.018 0.116144 -0.03416
-0.018 0.118096 -0.037088
-0.018 0.120048 -0.040016
-0.018 0.121024 -0.041968
-0.018 0.122 -0.04392
-0.018 0.122976 -0.045872
-0.018 0.123952 -0.047824
-0.018 0.124928 -0.049776
-0.018 0.125904 -0.051728
-0.018 0.12688 -0.05368
-0.018 0.127856 -0.055632
-0.018 0.128832 -0.05856
-0.018 0.129808 -0.061488
-0.018 0.130784 -0.064416
-0.018 0.13176 -0.067344
-0.018 0.132736 -0.071248
-0.018 0.133712 -0.075152
-0.018 0.134688 -0.079056
-0.018 0.135664 -0.08296
-0.018 0.13664 -0.088816
-0.018 0.137616 -0.094672
-0.018 0.138592 -0.101504
-0.021 -0.133712 -0.098576
-0.021 -0.132736 -0.091744
-0.021 -0.13176 -0.085888
-0.021 -0.130784 -0.081984
-0.021 -0.129808 -0.07808
-0.021 -0.128832 -0.074176
-0.021 -0.127856 -0.071248
-0.021 -0.12688 -0.067344
-0.021 -0.125904 -0.064416
-0.021 -0.124928 -0.061488
-0.021 -0.123952 -0.059536
-0.021 -0.122976 -0.056608
-0.021 -0.122 -0.054656
-0.021 -0.121024 -0.052704
-0.021 -0.120048 -0.049776
-0.021 -0.119072 -0.047824
-0.021 -0.118096 -0.045872
-0.021 -0.11712 -0.04392
-0.021 -0.116144 -0.041968
-0.021 -0.115168 -0.040016
-0.021 -0.113216 -0.037088
-0.021 -0.110288 -0.033184
-0.021 -0.098576 -0.021472
-0.021 -0.0976 -0.021472
-0.021 -0.094672 -0.018544
-0.021 -0.093696 -0.018544
-0.021 -0.091744 -0.016592
-0.021 -0.090768 -0.016592
-0.021 -0.089792 -0.015616
-0.021 -0.088816 -0.015616
-0.021 -0.086864 -0.013664
-0.021 -0.085888 -0.013664
-0.021 -0.084912 -0.012688
-0.021 -0.083936 -0.012688
-0.021 -0.08296 -0.011712
-0.021 -0.081984 -0.011712
-0.021 -0.081008 -0.010736
-0.021 -0.080032 -0.010736
-0.021 -0.079056 -0.00976
-0.021 -0.077104 -0.00976
-0.021 -0.076128 -0.008784
-0.021 -0.075152 -0.008784
-0.021 -0.074176 -0.007808
-0.021 -0.072224 -0.007808
-0.021 -0.071248 -0.006832
-0.021 -0.069296 -0.006832
-0.021 -0.06832 -0.005856
-0.021 -0.065392 -0.005856
-0.021 -0.064416 -0.00488
-0.021 -0.062464 -0.00488
-0.021 -0.061488 -0.003904
-0.021 -0.05856 -0.003904
-0.021 -0.057584 -0.002928
-0.021 -0.054656 -0.002928
-0.021 -0.05368 -0.001952
-0.021 -0.0488 -0.001952
-0.021 -0.047824 -0.000976
-0.021 -0.042944 -0.000976
-0.021 -0.041968 -0
-0.021 -0.035136 -0
-0.021 -0.03416 0.000976
-0.021 -0.0244 0.000976
-0.021 -0.023424 0.001952
-0.021 -0.010736 0.001952
-0.021 -0.00976 0.002928
-0.021 0.026352 0.002928
-0.021 0.027328 0.001952
-0.021 0.038064 0.001952
-0.021 0.03904 0.000976
-0.021 0.045872 0.000976
-0.021 0.046848 -0
-0.021 0.052704 -0
-0.021 0.05368 -0.000976
-0.021 0.057584 -0.000976
-0.021 0.05856 -0.001952
-0.021 0.062464 -0.001952
-0.021 0.06344 -0.002928
-0.021 0.067344 -0.002928
-0.021 0.06832 -0.003904
-0.021 0.071248 -0.003904
-0.021 0.072224 -0.00488
-0.021 0.074176 -0.00488
-0.021 0.075152 -0.005856
-0.021 0.077104 -0.005856
-0.021 0.07808 -0.006832
-0.021 0.080032 -0.006832
-0.021 0.081008 -0.007808
-0.021 0.081984 -0.007808
-0.021 0.08296 -0.008784
-0.021 0.084912 -0.008784
-0.021 0.085888 -0.00976
-0.021 0.086864 -0.00976
-0.021 0.08784 -0.010736
-0.021 0.088816 -0.010736
-0.021 0.089792 -0.011712
-0.021 0.090768 -0.011712
-0.021 0.091744 -0.012688
-0.021 0.09272 -0.012688
-0.021 0.094672 -0.01464
-0.021 0.095648 -0.01464
-0.021 0.0976 -0.016592
-0.021 0.098576 -0.016592
-0.021 0.101504 -0.01952
-0.021 0.10248 -0.01952
-0.021 0.11224 -0.02928
-0.021 0.116144 -0.03416
-0.021 0.118096 -0.037088
-0.021 0.120048 -0.040016
-0.021 0.121024 -0.041968
-0.021 0.122 -0.04392
-0.021 0.122976 -0.045872
-0.021 0.123952 -0.047824
-0.021 0.124928 -0.049776
-0.021 0.125904 -0.051728
-0.021 0.12688 -0.05368
-0.021 0.127856 -0.056608
-0.021 0.128832 -0.05856
-0.021 0.129808 -0.061488
-0.021 0.130784 -0.064416
-0.021 0.13176 -0.06832
-0.021 0.132736 -0.071248
-0.021 0.133712 -0.075152
-0.021 0.134688 -0.079056
-0.021 0.135664 -0.083936
-0.021 0.13664 -0.088816
-0.021 0.137616 -0.094672
-0.021 0.138592 -0.101504
-0.027 -0.130784 -0.106384
-0.027 -0.129808 -0.096624
-0.027 -0.128832 -0.090768
-0.027 -0.127856 -0.085888
-0.027 -0.12688 -0.081984
-0.027 -0.125904 -0.07808
-0.027 -0.124928 -0.074176
-0.027 -0.123952 -0.070272
-0.027 -0.122976 -0.067344
-0.027 -0.122 -0.06344
-0.027 -0.121024 -0.061488
-0.027 -0.120048 -0.05856
-0.027 -0.119072 -0.055632
-0.027 -0.118096 -0.05368
-0.027 -0.11712 -0.051728
-0.027 -0.116144 -0.049776
-0.027 -0.115168 -0.047824
-0.027 -0.114192 -0.045872
-0.027 -0.113216 -0.04392
-0.027 -0.111264 -0.040992
-0.027 -0.110288 -0.03904
-0.027 -0.10736 -0.035136
-0.027 -0.095648 -0.023424
-0.027 -0.094672 -0.023424
-0.027 -0.091744 -0.020496
-0.027 -0.090768 -0.020496
-0.027 -0.088816 -0.018544
-0.027 -0.08784 -0.018544
-0.027 -0.085888 -0.016592
-0.027 -0.084912 -0.016592
-0.027 -0.083936 -0.015616
-0.027 -0.08296 -0.015616
-0.027 -0.081984 -0.01464
-0.027 -0.081008 -0.01464
-0.027 -0.080032 -0.013664
-0.027 -0.07808 -0.013664
-0.027 -0.077104 -0.012688
-0.027 -0.076128 -0.012688
-0.027 -0.075152 -0.011712
-0.027 -0.0732 -0.011712
-0.027 -0.072224 -0.010736
-0.027 -0.070272 -0.010736
-0.027 -0.069296 -0.00976
-0.027 -0.067344 -0.00976
-0.027 -0.066368 -0.008784
-0.027 -0.06344 -0.008784
-0.027 -0.062464 -0.007808
-0.027 -0.059536 -0.007808
-0.027 -0.05856 -0.006832
-0.027 -0.054656 -0.006832
-0.027 -0.05368 -0.005856
-0.027 -0.049776 -0.005856
-0.027 -0.0488 -0.00488
-0.027 -0.04392 -0.00488
-0.027 -0.042944 -0.003904
-0.027 -0.037088 -0.003904
-0.027 -0.036112 -0.002928
-0.027 -0.028304 -0.002928
-0.027 -0.027328 -0.001952
-0.027 -0.010736 -0.001952
-0.027 -0.00976 -0.000976
-0.027 0.006832 -0.000976
-0.027 0.007808 -0.001952
-0.027 0.028304 -0.001952
-0.027 0.02928 -0.002928
-0.027 0.040016 -0.002928
-0.027 0.040992 -0.003904
-0.027 0.047824 -0.003904
-0.027 0.0488 -0.00488
-0.027 0.05368 -0.00488
-0.027 0.054656 -0.005856
-0.027 0.05856 -0.005856
-0.027 0.059536 -0.006832
-0.027 0.06344 -0.006832
-0.027 0.064416 -0.007808
-0.027 0.067344 -0.007808
-0.027 0.06832 -0.008784
-0.027 0.071248 -0.008784
-0.027 0.072224 -0.00976
-0.027 0.074176 -0.00976
-0.027 0.075152 -0.010736
-0.027 0.077104 -0.010736
-0.027 0.07808 -0.011712
-0.027 0.079056 -0.011712
-0.027 0.080032 -0.012688
-0.027 0.081984 -0.012688
-0.027 0.08296 -0.013664
-0.027 0.084912 -0.013664
-0.027 0.085888 -0.01464
-0.027 0.086864 -0.01464
-0.027 0.08784 -0.015616
-0.027 0.088816 -0.015616
-0.027 0.090768 -0.017568
-0.027 0.091744 -0.017568
-0.027 0.09272 -0.018544
-0.027 0.093696 -0.018544
-0.027 0.095648 -0.020496
-0.027 0.096624 -0.020496
-0.027 0.098576 -0.022448
-0.027 0.099552 -0.022448
-0.027 0.10248 -0.025376
-0.027 0.103456 -0.025376
-0.027 0.113216 -0.035136
-0.027 0.116144 -0.03904
-0.027 0.11712 -0.040992
-0.027 0.118096 -0.042944
-0.027 0.119072 -0.044896
-0.027 0.120048 -0.046848
-0.027 0.121024 -0.0488
-0.027 0.122 -0.050752
-0.027 0.122976 -0.052704
-0.027 0.123952 -0.054656
-0.027 0.124928 -0.057584
-0.027 0.125904 -0.059536
-0.027 0.12688 -0.062464
-0.027 0.127856 -0.065392
-0.027 0.128832 -0.06832
-0.027 0.129808 -0.070272
-0.027 0.130784 -0.074176
-0.027 0.13176 -0.077104
-0.027 0.132736 -0.080032
-0.027 0.133712 -0.083936
-0.027 0.134688 -0.08784
-0.027 0.135664 -0.09272
-0.027 0.13664 -0.099552
-0.03 -0.130784 -0.101504
-0.03 -0.129808 -0.093696
-0.03 -0.128832 -0.088816
-0.03 -0.127856 -0.083936
-0.03 -0.12688 -0.080032
-0.03 -0.125904 -0.076128
-0.03 -0.124928 -0.072224
-0.03 -0.123952 -0.069296
-0.03 -0.122976 -0.066368
-0.03 -0.122 -0.06344
-0.03 -0.121024 -0.060512
-0.03 -0.120048 -0.057584
-0.03 -0.119072 -0.055632
-0.03 -0.118096 -0.05368
-0.03 -0.11712 -0.051728
-0.03 -0.116144 -0.049776
-0.03 -0.115168 -0.047824
-0.03 -0.114192 -0.045872
-0.03 -0.113216 -0.04392
-0.03 -0.111264 -0.040992
-0.03 -0.109312 -0.038064
-0.03 -0.106384 -0.03416
-0.03 -0.095648 -0.023424
-0.03 -0.094672 -0.023424
-0.03 -0.09272 -0.021472
-0.03 -0.091744 -0.021472
-0.03 -0.089792 -0.01952
-0.03 -0.088816 -0.01952
-0.03 -0.086864 -0.017568
-0.03 -0.085888 -0.017568
-0.03 -0.084912 -0.016592
-0.03 -0.083936 -0.016592
-0.03 -0.08296 -0.015616
-0.03 -0.081984 -0.015616
-0.03 -0.081008 -0.01464
-0.03 -0.079056 -0.01464
-0.03 -0.07808 -0.013664
-0.03 -0.077104 -0.013664
-0.03 -0.076128 -0.012688
-0.03 -0.075152 -0.012688
-0.03 -0.074176 -0.011712
-0.03 -0.071248 -0.011712
-0.03 -0.070272 -0.010736
-0.03 -0.06832 -0.010736
-0.03 -0.067344 -0.00976
-0.03 -0.065392 -0.00976
-0.03 -0.064416 -0.008784
-0.03 -0.061488 -0.008784
-0.03 -0.060512 -0.007808
-0.03 -0.057584 -0.007808
-0.03 -0.056608 -0.006832
-0.03 -0.051728 -0.006832
-0.03 -0.050752 -0.005856
-0.03 -0.046848 -0.005856
-0.03 -0.045872 -0.00488
-0.03 -0.040016 -0.00488
-0.03 -0.03904 -0.003904
-0.03 -0.033184 -0.003904
-0.03 -0.032208 -0.002928
-0.03 -0.020496 -0.002928
-0.03 -0.01952 -0.001952
-0.03 0.016592 -0.001952
-0.03 0.017568 -0.002928
-0.03 0.032208 -0.002928
-0.03 0.033184 -0.003904
-0.03 0.042944 -0.003904
-0.03 0.04392 -0.00488
-0.03 0.050752 -0.00488
-0.03 0.051728 -0.005856
-0.03 0.056608 -0.005856
-0.03 0.057584 -0.006832
-0.03 0.060512 -0.006832
-0.03 0.061488 -0.007808
-0.03 0.065392 -0.007808
-0.03 0.066368 -0.008784
-0.03 0.069296 -0.008784
-0.03 0.070272 -0.00976
-0.03 0.072224 -0.00976
-0.03 0.0732 -0.010736
-0.03 0.076128 -0.010736
-0.03 0.077104 -0.011712
-0.03 0.079056 -0.011712
-0.03 0.080032 -0.012688
-0.03 0.081984 -0.012688
-0.03 0.08296 -0.013664
-0.03 0.083936 -0.013664
-0.03 0.084912 -0.01464
-0.03 0.085888 -0.01464
-0.03 0.086864 -0.015616
-0.03 0.088816 -0.015616
-0.03 0.090768 -0.017568
-0.03 0.091744 -0.017568
-0.03 0.09272 -0.018544
-0.03 0.093696 -0.018544
-0.03 0.095648 -0.020496
-0.03 0.096624 -0.020496
-0.03 0.0976 -0.021472
-0.03 0.098576 -0.021472
-0.03 0.100528 -0.023424
-0.03 0.101504 -0.023424
-0.03 0.114192 -0.036112
-0.03 0.116144 -0.03904
-0.03 0.11712 -0.040992
-0.03 0.119072 -0.04392
-0.03 0.120048 -0.045872
-0.03 0.121024 -0.047824
-0.03 0.122 -0.050752
-0.03 0.122976 -0.052704
-0.03 0.123952 -0.054656
-0.03 0.124928 -0.056608
-0.03 0.125904 -0.059536
-0.03 0.12688 -0.061488
-0.03 0.127856 -0.064416
-0.03 0.128832 -0.067344
-0.03 0.129808 -0.069296
-0.03 0.130784 -0.072224
-0.03 0.13176 -0.076128
-0.03 0.132736 -0.079056
-0.03 0.133712 -0.081984
-0.03 0.134688 -0.085888
-0.03 0.135664 -0.090768
-0.03 0.13664 -0.095648
-0.03 0.137616 -0.106384
-0.033 -0.130784 -0.098576
-0.033 -0.129808 -0.091744
-0.033 -0.128832 -0.086864
-0.033 -0.127856 -0.081984
-0.033 -0.12688 -0.07808
-0.033 -0.125904 -0.075152
-0.033 -0.124928 -0.071248
-0.033 -0.123952 -0.06832
-0.033 -0.122976 -0.065392
-0.033 -0.122 -0.062464
-0.033 -0.121024 -0.060512
-0.033 -0.120048 -0.057584
-0.033 -0.119072 -0.055632
-0.033 -0.118096 -0.052704
-0.033 -0.11712 -0.050752
-0.033 -0.116144 -0.0488
-0.033 -0.114192 -0.045872
-0.033 -0.113216 -0.04392
-0.033 -0.111264 -0.040992
-0.033 -0.109312 -0.038064
-0.033 -0.106384 -0.03416
-0.033 -0.0976 -0.025376
-0.033 -0.096624 -0.025376
-0.033 -0.09272 -0.021472
-0.033 -0.091744 -0.021472
-0.033 -0.089792 -0.01952
-0.033 -0.088816 -0.01952
-0.033 -0.08784 -0.018544
-0.033 -0.086864 -0.018544
-0.033 -0.085888 -0.017568
-0.033 -0.084912 -0.017568
-0.033 -0.083936 -0.016592
-0.033 -0.08296 -0.016592
-0.033 -0.081984 -0.015616
-0.033 -0.081008 -0.015616
-0.033 -0.080032 -0.01464
-0.033 -0.079056 -0.01464
-0.033 -0.07808 -0.013664
-0.033 -0.076128 -0.013664
-0.033 -0.075152 -0.012688
-0.033 -0.0732 -0.012688
-0.033 -0.072224 -0.011712
-0.033 -0.070272 -0.011712
-0.033 -0.069296 -0.010736
-0.033 -0.066368 -0.010736
-0.033 -0.065392 -0.00976
-0.033 -0.062464 -0.00976
-0.033 -0.061488 -0.008784
-0.033 -0.05856 -0.008784
-0.033 -0.057584 -0.007808
-0.033 -0.054656 -0.007808
-0.033 -0.05368 -0.006832
-0.033 -0.049776 -0.006832
-0.033 -0.0488 -0.005856
-0.033 -0.042944 -0.005856
-0.033 -0.041968 -0.00488
-0.033 -0.037088 -0.00488
-0.033 -0.036112 -0.003904
-0.033 -0.0244 -0.003904
-0.033 -0.023424 -0.002928
-0.033 0.020496 -0.002928
-0.033 0.021472 -0.003904
-0.033 0.036112 -0.003904
-0.033 0.037088 -0.00488
-0.033 0.045872 -0.00488
-0.033 0.046848 -0.005856
-0.033 0.051728 -0.005856
-0.033 0.052704 -0.006832
-0.033 0.05856 -0.006832
-0.033 0.059536 -0.007808
-0.033 0.062464 -0.007808
-0.033 0.06344 -0.008784
-0.033 0.067344 -0.008784
-0.033 0.06832 -0.00976
-0.033 0.072224 -0.00976
-0.033 0.0732 -0.010736
-0.033 0.075152 -0.010736
-0.033 0.076128 -0.011712
-0.033 0.079056 -0.011712
-0.033 0.080032 -0.012688
-0.033 0.081984 -0.012688
-0.033 0.08296 -0.013664
-0.033 0.083936 -0.013664
-0.033 0.084912 -0.01464
-0.033 0.085888 -0.01464
-0.033 0.086864 -0.015616
-0.033 0.08784 -0.015616
-0.033 0.088816 -0.016592
-0.033 0.090768 -0.016592
-0.033 0.09272 -0.018544
-0.033 0.093696 -0.018544
-0.033 0.094672 -0.01952
-0.033 0.095648 -0.01952
-0.033 0.0976 -0.021472
-0.033 0.098576 -0.021472
-0.033 0.099552 -0.022448
-0.033 0.100528 -0.022448
-0.033 0.105408 -0.027328
-0.033 0.106384 -0.027328
-0.033 0.108336 -0.02928
-0.033 0.114192 -0.036112
-0.033 0.116144 -0.03904
-0.033 0.11712 -0.040992
-0.033 0.118096 -0.042944
-0.033 0.120048 -0.045872
-0.033 0.121024 -0.047824
-0.033 0.122 -0.050752
-0.033 0.122976 -0.052704
-0.033 0.123952 -0.054656
-0.033 0.124928 -0.056608
-0.033 0.125904 -0.059536
-0.033 0.12688 -0.061488
-0.033 0.127856 -0.064416
-0.033 0.128832 -0.066368
-0.033 0.129808 -0.069296
-0.033 0.130784 -0.071248
-0.033 0.13176 -0.074176
-0.033 0.132736 -0.07808
-0.033 0.133712 -0.081008
-0.033 0.134688 -0.083936
-0.033 0.135664 -0.088816
-0.033 0.13664 -0.093696
-0.033 0.137616 -0.10248
-0.036 -0.130784 -0.096624
-0.036 -0.129808 -0.090768
-0.036 -0.128832 -0.085888
-0.036 -0.127856 -0.081984
-0.036 -0.12688 -0.07808
-0.036 -0.125904 -0.074176
-0.036 -0.124928 -0.071248
-0.036 -0.123952 -0.06832
-0.036 -0.122976 -0.065392
-0.036 -0.122 -0.062464
-0.036 -0.121024 -0.059536
-0.036 -0.120048 -0.057584
-0.036 -0.119072 -0.054656
-0.036 -0.118096 -0.052704
-0.036 -0.11712 -0.050752
-0.036 -0.116144 -0.0488
-0.036 -0.114192 -0.045872
-0.036 -0.113216 -0.04392
-0.036 -0.111264 -0.040992
-0.036 -0.109312 -0.038064
-0.036 -0.10736 -0.035136
-0.036 -0.103456 -0.030256
-0.036 -0.10248 -0.030256
-0.036 -0.098576 -0.026352
-0.036 -0.0976 -0.026352
-0.036 -0.093696 -0.022448
-0.036 -0.09272 -0.022448
-0.036 -0.090768 -0.020496
-0.036 -0.089792 -0.020496
-0.036 -0.08784 -0.018544
-0.036 -0.086864 -0.018544
-0.036 -0.085888 -0.017568
-0.036 -0.084912 -0.017568
-0.036 -0.083936 -0.016592
-0.036 -0.08296 -0.016592
-0.036 -0.081984 -0.015616
-0.036 -0.081008 -0.015616
-0.036 -0.080032 -0.01464
-0.036 -0.07808 -0.01464
-0.036 -0.077104 -0.013664
-0.036 -0.075152 -0.013664
-0.036 -0.074176 -0.012688
-0.036 -0.072224 -0.012688
-0.036 -0.071248 -0.011712
-0.036 -0.069296 -0.011712
-0.036 -0.06832 -0.010736
-0.036 -0.064416 -0.010736
-0.036 -0.06344 -0.00976
-0.036 -0.061488 -0.00976
-0.036 -0.060512 -0.008784
-0.036 -0.057584 -0.008784
-0.036 -0.056608 -0.007808
-0.036 -0.052704 -0.007808
-0.036 -0.051728 -0.006832
-0.036 -0.047824 -0.006832
-0.036 -0.046848 -0.005856
-0.036 -0.040016 -0.005856
-0.036 -0.03904 -0.00488
-0.036 -0.030256 -0.00488
-0.036 -0.02928 -0.003904
-0.036 -0.018544 -0.003904
-0.036 -0.017568 -0.002928
-0.036 0.007808 -0.002928
-0.036 0.008784 -0.003904
-0.036 0.026352 -0.003904
-0.036 0.027328 -0.00488
-0.036 0.041968 -0.00488
-0.036 0.042944 -0.005856
-0.036 0.049776 -0.005856
-0.036 0.050752 -0.006832
-0.036 0.056608 -0.006832
-0.036 0.057584 -0.007808
-0.036 0.061488 -0.007808
-0.036 0.062464 -0.008784
-0.036 0.067344 -0.008784
-0.036 0.06832 -0.00976
-0.036 0.072224 -0.00976
-0.036 0.0732 -0.010736
-0.036 0.075152 -0.010736
-0.036 0.076128 -0.011712
-0.036 0.079056 -0.011712
-0.036 0.080032 -0.012688
-0.036 0.081008 -0.012688
-0.036 0.081984 -0.013664
-0.036 0.083936 -0.013664
-0.036 0.084912 -0.01464
-0.036 0.085888 -0.01464
-0.036 0.086864 -0.015616
-0.036 0.088816 -0.015616
-0.036 0.089792 -0.016592
-0.036 0.090768 -0.016592
-0.036 0.09272 -0.018544
-0.036 0.093696 -0.018544
-0.036 0.094672 -0.01952
-0.036 0.095648 -0.01952
-0.036 0.096624 -0.020496
-0.036 0.0976 -0.020496
-0.036 0.099552 -0.022448
-0.036 0.100528 -0.022448
-0.036 0.104432 -0.026352
-0.036 0.105408 -0.026352
-0.036 0.111264 -0.032208
-0.036 0.114192 -0.036112
-0.036 0.116144 -0.03904
-0.036 0.118096 -0.041968
-0.036 0.119072 -0.04392
-0.036 0.120048 -0.045872
-0.036 0.121024 -0.047824
-0.036 0.122 -0.049776
-0.036 0.122976 -0.052704
-0.036 0.123952 -0.054656
-0.036 0.124928 -0.056608
-0.036 0.125904 -0.059536
-0.036 0.12688 -0.061488
-0.036 0.127856 -0.06344
-0.036 0.128832 -0.066368
-0.036 0.129808 -0.069296
-0.036 0.130784 -0.071248
-0.036 0.13176 -0.074176
-0.036 0.132736 -0.077104
-0.036 0.133712 -0.080032
-0.036 0.134688 -0.083936
-0.036 0.135664 -0.088816
-0.036 0.13664 -0.093696
-0.036 0.137616 -0.099552
-0.039 -0.13176 -0.108336
-0.039 -0.130784 -0.095648
-0.039 -0.129808 -0.089792
-0.039 -0.128832 -0.084912
-0.039 -0.127856 -0.081008
-0.039 -0.12688 -0.07808
-0.039 -0.125904 -0.074176
-0.039 -0.124928 -0.071248
-0.039 -0.123952 -0.06832
-0.039 -0.122976 -0.065392
-0.039 -0.122 -0.062464
-0.039 -0.121024 -0.059536
-0.039 -0.120048 -0.057584
-0.039 -0.119072 -0.055632
-0.039 -0.118096 -0.052704
-0.039 -0.11712 -0.050752
-0.039 -0.116144 -0.0488
-0.039 -0.115168 -0.046848
-0.039 -0.113216 -0.04392
-0.039 -0.11224 -0.041968
-0.039 -0.110288 -0.03904
-0.039 -0.108336 -0.036112
-0.039 -0.103456 -0.030256
-0.039 -0.10248 -0.030256
-0.039 -0.095648 -0.023424
-0.039 -0.094672 -0.023424
-0.039 -0.09272 -0.021472
-0.039 -0.091744 -0.021472
-0.039 -0.090768 -0.020496
-0.039 -0.089792 -0.020496
-0.039 -0.08784 -0.018544
-0.039 -0.086864 -0.018544
-0.039 -0.085888 -0.017568
-0.039 -0.084912 -0.017568
-0.039 -0.083936 -0.016592
-0.039 -0.08296 -0.016592
-0.039 -0.081984 -0.015616
-0.039 -0.081008 -0.015616
-0.039 -0.080032 -0.01464
-0.039 -0.07808 -0.01464
-0.039 -0.077104 -0.013664
-0.039 -0.075152 -0.013664
-0.039 -0.074176 -0.012688
-0.039 -0.072224 -0.012688
-0.039 -0.071248 -0.011712
-0.039 -0.06832 -0.011712
-0.039 -0.067344 -0.010736
-0.039 -0.064416 -0.010736
-0.039 -0.06344 -0.00976
-0.039 -0.060512 -0.00976
-0.039 -0.059536 -0.008784
-0.039 -0.056608 -0.008784
-0.039 -0.055632 -0.007808
-0.039 -0.050752 -0.007808
-0.039 -0.049776 -0.006832
-0.039 -0.044896 -0.006832
-0.039 -0.04392 -0.005856
-0.039 -0.03416 -0.005856
-0.039 -0.033184 -0.00488
-0.039 -0.023424 -0.00488
-0.039 -0.022448 -0.003904
-0.039 0.015616 -0.003904
-0.039 0.016592 -0.00488
-0.039 0.033184 -0.00488
-0.039 0.03416 -0.005856
-0.039 0.045872 -0.005856
-0.039 0.046848 -0.006832
-0.039 0.05368 -0.006832
-0.039 0.054656 -0.007808
-0.039 0.059536 -0.007808
-0.039 0.060512 -0.008784
-0.039 0.064416 -0.008784
-0.039 0.065392 -0.00976
-0.039 0.071248 -0.00976
-0.039 0.072224 -0.010736
-0.039 0.075152 -0.010736
-0.039 0.076128 -0.011712
-0.039 0.079056 -0.011712
-0.039 0.080032 -0.012688
-0.039 0.081008 -0.012688
-0.039 0.081984 -0.013664
-0.039 0.083936 -0.013664
-0.039 0.084912 -0.01464
-0.039 0.085888 -0.01464
-0.039 0.086864 -0.015616
-0.039 0.088816 -0.015616
-0.039 0.089792 -0.016592
-0.039 0.090768 -0.016592
-0.039 0.09272 -0.018544
-0.039 0.093696 -0.018544
-0.039 0.094672 -0.01952
-0.039 0.095648 -0.01952
-0.039 0.096624 -0.020496
-0.039 0.0976 -0.020496
-0.039 0.099552 -0.022448
-0.039 0.100528 -0.022448
-0.039 0.10248 -0.0244
-0.039 0.103456 -0.0244
-0.039 0.111264 -0.032208
-0.039 0.114192 -0.036112
-0.039 0.116144 -0.03904
-0.039 0.11712 -0.040992
-0.039 0.119072 -0.04392
-0.039 0.120048 -0.045872
-0.039 0.121024 -0.047824
-0.039 0.122 -0.049776
-0.039 0.122976 -0.052704
-0.039 0.123952 -0.054656
-0.039 0.124928 -0.056608
-0.039 0.125904 -0.05856
-0.039 0.12688 -0.061488
-0.039 0.127856 -0.06344
-0.039 0.128832 -0.066368
-0.039 0.129808 -0.06832
-0.039 0.130784 -0.071248
-0.039 0.13176 -0.074176
-0.039 0.132736 -0.077104
-0.039 0.133712 -0.079056
-0.039 0.134688 -0.08296
-0.039 0.135664 -0.08784
-0.039 0.13664 -0.09272
-0.039 0.137616 -0.098576
-0.042 -0.13176 -0.105408
-0.042 -0.130784 -0.095648
-0.042 -0.129808 -0.089792
-0.042 -0.128832 -0.084912
-0.042 -0.127856 -0.081008
-0.042 -0.12688 -0.077104
-0.042 -0.125904 -0.074176
-0.042 -0.124928 -0.071248
-0.042 -0.123952 -0.06832
-0.042 -0.122976 -0.065392
-0.042 -0.122 -0.062464
-0.042 -0.121024 -0.060512
-0.042 -0.120048 -0.057584
-0.042 -0.119072 -0.055632
-0.042 -0.118096 -0.052704
-0.042 -0.11712 -0.050752
-0.042 -0.115168 -0.047824
-0.042 -0.114192 -0.045872
-0.042 -0.113216 -0.04392
-0.042 -0.111264 -0.040992
-0.042 -0.110288 -0.03904
-0.042 -0.108336 -0.036112
-0.042 -0.095648 -0.023424
-0.042 -0.094672 -0.023424
-0.042 -0.09272 -0.021472
-0.042 -0.091744 -0.021472
-0.042 -0.089792 -0.01952
-0.042 -0.088816 -0.01952
-0.042 -0.08784 -0.018544
-0.042 -0.086864 -0.018544
-0.042 -0.085888 -0.017568
-0.042 -0.084912 -0.017568
-0.042 -0.083936 -0.016592
-0.042 -0.08296 -0.016592
-0.042 -0.081984 -0.015616
-0.042 -0.081008 -0.015616
-0.042 -0.080032 -0.01464
-0.042 -0.07808 -0.01464
-0.042 -0.077104 -0.013664
-0.042 -0.075152 -0.013664
-0.042 -0.074176 -0.012688
-0.042 -0.071248 -0.012688
-0.042 -0.070272 -0.011712
-0.042 -0.067344 -0.011712
-0.042 -0.066368 -0.010736
-0.042 -0.06344 -0.010736
-0.042 -0.062464 -0.00976
-0.042 -0.059536 -0.00976
-0.042 -0.05856 -0.008784
-0.042 -0.054656 -0.008784
-0.042 -0.05368 -0.007808
-0.042 -0.0488 -0.007808
-0.042 -0.047824 -0.006832
-0.042 -0.041968 -0.006832
-0.042 -0.040992 -0.005856
-0.042 -0.030256 -0.005856
-0.042 -0.02928 -0.00488
-0.042 -0.016592 -0.00488
-0.042 -0.015616 -0.003904
-0.042 0.001952 -0.003904
-0.042 0.002928 -0.00488
-0.042 0.022448 -0.00488
-0.042 0.023424 -0.005856
-0.042 0.040016 -0.005856
-0.042 0.040992 -0.006832
-0.042 0.050752 -0.006832
-0.042 0.051728 -0.007808
-0.042 0.057584 -0.007808
-0.042 0.05856 -0.008784
-0.042 0.06344 -0.008784
-0.042 0.064416 -0.00976
-0.042 0.070272 -0.00976
-0.042 0.071248 -0.010736
-0.042 0.074176 -0.010736
-0.042 0.075152 -0.011712
-0.042 0.07808 -0.011712
-0.042 0.079056 -0.012688
-0.042 0.081008 -0.012688
-0.042 0.081984 -0.013664
-0.042 0.083936 -0.013664
-0.042 0.084912 -0.01464
-0.042 0.085888 -0.01464
-0.042 0.086864 -0.015616
-0.042 0.088816 -0.015616
-0.042 0.089792 -0.016592
-0.042 0.090768 -0.016592
-0.042 0.091744 -0.017568
-0.042 0.09272 -0.017568
-0.042 0.094672 -0.01952
-0.042 0.095648 -0.01952
-0.042 0.096624 -0.020496
-0.042 0.0976 -0.020496
-0.042 0.098576 -0.021472
-0.042 0.099552 -0.021472
-0.042 0.10248 -0.0244
-0.042 0.103456 -0.0244
-0.042 0.11224 -0.033184
-0.042 0.114192 -0.036112
-0.042 0.116144 -0.03904
-0.042 0.11712 -0.040992
-0.042 0.119072 -0.04392
-0.042 0.120048 -0.045872
-0.042 0.121024 -0.047824
-0.042 0.122 -0.050752
-0.042 0.122976 -0.052704
-0.042 0.123952 -0.054656
-0.042 0.124928 -0.056608
-0.042 0.125904 -0.05856
-0.042 0.12688 -0.061488
-0.042 0.127856 -0.06344
-0.042 0.128832 -0.066368
-0.042 0.129808 -0.06832
-0.042 0.130784 -0.071248
-0.042 0.13176 -0.074176
-0.042 0.132736 -0.076128
-0.042 0.133712 -0.079056
-0.042 0.134688 -0.08296
-0.042 0.135664 -0.086864
-0.042 0.13664 -0.091744
-0.042 0.137616 -0.0976
-0.045 -0.13176 -0.106384
-0.045 -0.130784 -0.095648
-0.045 -0.129808 -0.089792
-0.045 -0.128832 -0.084912
-0.045 -0.127856 -0.081008
-0.045 -0.12688 -0.07808
-0.045 -0.125904 -0.074176
-0.045 -0.124928 -0.071248
-0.045 -0.123952 -0.06832
-0.045 -0.122976 -0.065392
-0.045 -0.122 -0.06344
-0.045 -0.121024 -0.060512
-0.045 -0.120048 -0.057584
-0.045 -0.119072 -0.055632
-0.045 -0.118096 -0.05368
-0.045 -0.11712 -0.051728
-0.045 -0.116144 -0.049776
-0.045 -0.115168 -0.047824
-0.045 -0.114192 -0.045872
-0.045 -0.113216 -0.04392
-0.045 -0.111264 -0.040992
-0.045 -0.109312 -0.038064
-0.045 -0.10736 -0.035136
-0.045 -0.094672 -0.022448
-0.045 -0.093696 -0.022448
-0.045 -0.091744 -0.020496
-0.045 -0.090768 -0.020496
-0.045 -0.089792 -0.01952
-0.045 -0.088816 -0.01952
-0.045 -0.08784 -0.018544
-0.045 -0.086864 -0.018544
-0.045 -0.084912 -0.016592
-0.045 -0.083936 -0.016592
-0.045 -0.08296 -0.015616
-0.045 -0.081008 -0.015616
-0.045 -0.080032 -0.01464
-0.045 -0.079056 -0.01464
-0.045 -0.07808 -0.013664
-0.045 -0.075152 -0.013664
-0.045 -0.074176 -0.012688
-0.045 -0.071248 -0.012688
-0.045 -0.070272 -0.011712
-0.045 -0.067344 -0.011712
-0.045 -0.066368 -0.010736
-0.045 -0.06344 -0.010736
-0.045 -0.062464 -0.00976
-0.045 -0.05856 -0.00976
-0.045 -0.057584 -0.008784
-0.045 -0.05368 -0.008784
-0.045 -0.052704 -0.007808
-0.045 -0.046848 -0.007808
-0.045 -0.045872 -0.006832
-0.045 -0.038064 -0.006832
-0.045 -0.037088 -0.005856
-0.045 -0.0244 -0.005856
-0.045 -0.023424 -0.00488
-0.045 0.011712 -0.00488
-0.045 0.012688 -0.005856
-0.045 0.030256 -0.005856
-0.045 0.031232 -0.006832
-0.045 0.047824 -0.006832
-0.045 0.0488 -0.007808
-0.045 0.055632 -0.007808
-0.045 0.056608 -0.008784
-0.045 0.062464 -0.008784
-0.045 0.06344 -0.00976
-0.045 0.069296 -0.00976
-0.045 0.070272 -0.010736
-0.045 0.074176 -0.010736
-0.045 0.075152 -0.011712
-0.045 0.07808 -0.011712
-0.045 0.079056 -0.012688
-0.045 0.081008 -0.012688
-0.045 0.081984 -0.013664
-0.045 0.083936 -0.013664
-0.045 0.084912 -0.01464
-0.045 0.085888 -0.01464
-0.045 0.086864 -0.015616
-0.045 0.08784 -0.015616
-0.045 0.088816 -0.016592
-0.045 0.090768 -0.016592
-0.045 0.091744 -0.017568
-0.045 0.09272 -0.017568
-0.045 0.093696 -0.018544
-0.045 0.094672 -0.018544
-0.045 0.096624 -0.020496
-0.045 0.0976 -0.020496
-0.045 0.099552 -0.022448
-0.045 0.100528 -0.022448
-0.045 0.103456 -0.025376
-0.045 0.104432 -0.025376
-0.045 0.11224 -0.033184
-0.045 0.114192 -0.036112
-0.045 0.116144 -0.03904
-0.045 0.11712 -0.040992
-0.045 0.119072 -0.04392
-0.045 0.121024 -0.047824
-0.045 0.122 -0.050752
-0.045 0.122976 -0.052704
-0.045 0.123952 -0.054656
-0.045 0.124928 -0.057584
-0.045 0.125904 -0.059536
-0.045 0.12688 -0.061488
-0.045 0.127856 -0.06344
-0.045 0.128832 -0.066368
-0.045 0.129808 -0.06832
-0.045 0.130784 -0.071248
-0.045 0.13176 -0.074176
-0.045 0.132736 -0.076128
-0.045 0.133712 -0.079056
-0.045 0.134688 -0.08296
-0.045 0.135664 -0.086864
-0.045 0.13664 -0.091744
-0.045 0.137616 -0.0976
-0.048 -0.13176 -0.109312
-0.048 -0.130784 -0.096624
-0.048 -0.129808 -0.090768
-0.048 -0.128832 -0.085888
-0.048 -0.127856 -0.081008
-0.048 -0.12688 -0.07808
-0.048 -0.125904 -0.074176
-0.048 -0.124928 -0.071248
-0.048 -0.123952 -0.06832
-0.048 -0.122976 -0.066368
-0.048 -0.122 -0.06344
-0.048 -0.121024 -0.061488
-0.048 -0.120048 -0.05856
-0.048 -0.119072 -0.056608
-0.048 -0.118096 -0.054656
-0.048 -0.11712 -0.051728
-0.048 -0.116144 -0.049776
-0.048 -0.115168 -0.047824
-0.048 -0.113216 -0.044896
-0.048 -0.11224 -0.042944
-0.048 -0.111264 -0.040992
-0.048 -0.109312 -0.038064
-0.048 -0.106384 -0.03416
-0.048 -0.101504 -0.028304
-0.048 -0.100528 -0.028304
-0.048 -0.094672 -0.022448
-0.048 -0.093696 -0.022448
-0.048 -0.091744 -0.020496
-0.048 -0.090768 -0.020496
-0.048 -0.088816 -0.018544
-0.048 -0.08784 -0.018544
-0.048 -0.086864 -0.017568
-0.048 -0.085888 -0.017568
-0.048 -0.084912 -0.016592
-0.048 -0.083936 -0.016592
-0.048 -0.08296 -0.015616
-0.048 -0.081008 -0.015616
-0.048 -0.080032 -0.01464
-0.048 -0.079056 -0.01464
-0.048 -0.07808 -0.013664
-0.048 -0.075152 -0.013664
-0.048 -0.074176 -0.012688
-0.048 -0.071248 -0.012688
-0.048 -0.070272 -0.011712
-0.048 -0.067344 -0.011712
-0.048 -0.066368 -0.010736
-0.048 -0.062464 -0.010736
-0.048 -0.061488 -0.00976
-0.048 -0.057584 -0.00976
-0.048 -0.056608 -0.008784
-0.048 -0.050752 -0.008784
-0.048 -0.049776 -0.007808
-0.048 -0.04392 -0.007808
-0.048 -0.042944 -0.006832
-0.048 -0.033184 -0.006832
-0.048 -0.032208 -0.005856
-0.048 -0.006832 -0.005856
-0.048 -0.005856 -0.00488
-0.048 -0.001952 -0.00488
-0.048 -0.000976 -0.005856
-0.048 0.017568 -0.005856
-0.048 0.018544 -0.006832
-0.048 0.040016 -0.006832
-0.048 0.040992 -0.007808
-0.048 0.052704 -0.007808
-0.048 0.05368 -0.008784
-0.048 0.060512 -0.008784
-0.048 0.061488 -0.00976
-0.048 0.06832 -0.00976
-0.048 0.069296 -0.010736
-0.048 0.0732 -0.010736
-0.048 0.074176 -0.011712
-0.048 0.077104 -0.011712
-0.048 0.07808 -0.012688
-0.048 0.081008 -0.012688
-0.048 0.081984 -0.013664
-0.048 0.08296 -0.013664
-0.048 0.083936 -0.01464
-0.048 0.084912 -0.01464
-0.048 0.085888 -0.015616
-0.048 0.08784 -0.015616
-0.048 0.088816 -0.016592
-0.048 0.089792 -0.016592
-0.048 0.090768 -0.017568
-0.048 0.09272 -0.017568
-0.048 0.094672 -0.01952
-0.048 0.095648 -0.01952
-0.048 0.096624 -0.020496
-0.048 0.0976 -0.020496
-0.048 0.099552 -0.022448
-0.048 0.100528 -0.022448
-0.048 0.10248 -0.0244
-0.048 0.103456 -0.0244
-0.048 0.111264 -0.032208
-0.048 0.114192 -0.036112
-0.048 0.116144 -0.03904
-0.048 0.11712 -0.040992
-0.048 0.118096 -0.042944
-0.048 0.119072 -0.044896
-0.048 0.120048 -0.046848
-0.048 0.121024 -0.0488
-0.048 0.122 -0.050752
-0.048 0.122976 -0.052704
-0.048 0.123952 -0.054656
-0.048 0.124928 -0.057584
-0.048 0.125904 -0.059536
-0.048 0.12688 -0.061488
-0.048 0.127856 -0.064416
-0.048 0.128832 -0.066368
-0.048 0.129808 -0.069296
-0.048 0.130784 -0.071248
-0.048 0.13176 -0.074176
-0.048 0.132736 -0.077104
-0.048 0.133712 -0.080032
-0.048 0.134688 -0.08296
-0.048 0.135664 -0.086864
-0.048 0.13664 -0.091744
-0.048 0.137616 -0.096624
-0.051 -0.130784 -0.096624
-0.051 -0.129808 -0.090768
-0.051 -0.128832 -0.085888
-0.051 -0.127856 -0.081984
-0.051 -0.12688 -0.07808
-0.051 -0.125904 -0.075152
-0.051 -0.124928 -0.071248
-0.051 -0.123952 -0.069296
-0.051 -0.122976 -0.066368
-0.051 -0.122 -0.064416
-0.051 -0.121024 -0.062464
-0.051 -0.120048 -0.059536
-0.051 -0.119072 -0.057584
-0.051 -0.118096 -0.054656
-0.051 -0.11712 -0.052704
-0.051 -0.116144 -0.050752
-0.051 -0.115168 -0.0488
-0.051 -0.114192 -0.046848
-0.051 -0.113216 -0.044896
-0.051 -0.11224 -0.042944
-0.051 -0.111264 -0.040992
-0.051 -0.109312 -0.038064
-0.051 -0.106384 -0.03416
-0.051 -0.095648 -0.023424
-0.051 -0.094672 -0.023424
-0.051 -0.091744 -0.020496
-0.051 -0.090768 -0.020496
-0.051 -0.088816 -0.018544
-0.051 -0.08784 -0.018544
-0.051 -0.086864 -0.017568
-0.051 -0.085888 -0.017568
-0.051 -0.084912 -0.016592
-0.051 -0.083936 -0.016592
-0.051 -0.08296 -0.015616
-0.051 -0.081008 -0.015616
-0.051 -0.080032 -0.01464
-0.051 -0.07808 -0.01464
-0.051 -0.077104 -0.013664
-0.051 -0.075152 -0.013664
-0.051 -0.074176 -0.012688
-0.051 -0.071248 -0.012688
-0.051 -0.070272 -0.011712
-0.051 -0.067344 -0.011712
-0.051 -0.066368 -0.010736
-0.051 -0.061488 -0.010736
-0.051 -0.060512 -0.00976
-0.051 -0.055632 -0.00976
-0.051 -0.054656 -0.008784
-0.051 -0.0488 -0.008784
-0.051 -0.047824 -0.007808
-0.051 -0.040016 -0.007808
-0.051 -0.03904 -0.006832
-0.051 -0.0244 -0.006832
-0.051 -0.023424 -0.005856
-0.051 0.003904 -0.005856
-0.051 0.00488 -0.006832
-0.051 0.025376 -0.006832
-0.051 0.026352 -0.007808
-0.051 0.046848 -0.007808
-0.051 0.047824 -0.008784
-0.051 0.057584 -0.008784
-0.051 0.05856 -0.00976
-0.051 0.066368 -0.00976
-0.051 0.067344 -0.010736
-0.051 0.072224 -0.010736
-0.051 0.0732 -0.011712
-0.051 0.077104 -0.011712
-0.051 0.07808 -0.012688
-0.051 0.080032 -0.012688
-0.051 0.081008 -0.013664
-0.051 0.08296 -0.013664
-0.051 0.083936 -0.01464
-0.051 0.084912 -0.01464
-0.051 0.085888 -0.015616
-0.051 0.08784 -0.015616
-0.051 0.088816 -0.016592
-0.051 0.090768 -0.016592
-0.051 0.091744 -0.017568
-0.051 0.09272 -0.017568
-0.051 0.093696 -0.018544
-0.051 0.094672 -0.018544
-0.051 0.096624 -0.020496
-0.051 0.0976 -0.020496
-0.051 0.098576 -0.021472
-0.051 0.099552 -0.021472
-0.051 0.101504 -0.023424
-0.051 0.10248 -0.023424
-0.051 0.11224 -0.033184
-0.051 0.114192 -0.036112
-0.051 0.116144 -0.03904
-0.051 0.11712 -0.040992
-0.051 0.118096 -0.042944
-0.051 0.119072 -0.044896
-0.051 0.120048 -0.046848
-0.051 0.121024 -0.0488
-0.051 0.122 -0.050752
-0.051 0.122976 -0.052704
-0.051 0.123952 -0.055632
-0.051 0.124928 -0.057584
-0.051 0.125904 -0.059536
-0.051 0.12688 -0.062464
-0.051 0.127856 -0.064416
-0.051 0.128832 -0.066368
-0.051 0.129808 -0.069296
-0.051 0.130784 -0.071248
-0.051 0.13176 -0.074176
-0.051 0.132736 -0.077104
-0.051 0.133712 -0.080032
-0.051 0.134688 -0.08296
-0.051 0.135664 -0.086864
-0.051 0.13664 -0.091744
-0.051 0.137616 -0.098576
-0.054 -0.13176 -0.109312
-0.054 -0.130784 -0.0976
-0.054 -0.129808 -0.090768
-0.054 -0.128832 -0.085888
-0.054 -0.127856 -0.081984
-0.054 -0.12688 -0.07808
-0.054 -0.125904 -0.075152
-0.054 -0.124928 -0.072224
-0.054 -0.123952 -0.069296
-0.054 -0.122976 -0.067344
-0.054 -0.122 -0.064416
-0.054 -0.121024 -0.062464
-0.054 -0.120048 -0.059536
-0.054 -0.119072 -0.057584
-0.054 -0.118096 -0.055632
-0.054 -0.11712 -0.05368
-0.054 -0.116144 -0.050752
-0.054 -0.115168 -0.0488
-0.054 -0.114192 -0.046848
-0.054 -0.113216 -0.044896
-0.054 -0.11224 -0.042944
-0.054 -0.110288 -0.040016
-0.054 -0.109312 -0.038064
-0.054 -0.106384 -0.03416
-0.054 -0.095648 -0.023424
-0.054 -0.094672 -0.023424
-0.054 -0.091744 -0.020496
-0.054 -0.090768 -0.020496
-0.054 -0.088816 -0.018544
-0.054 -0.08784 -0.018544
-0.054 -0.086864 -0.017568
-0.054 -0.085888 -0.017568
-0.054 -0.084912 -0.016592
-0.054 -0.083936 -0.016592
-0.054 -0.08296 -0.015616
-0.054 -0.081008 -0.015616
-0.054 -0.080032 -0.01464
-0.054 -0.079056 -0.01464
-0.054 -0.07808 -0.013664
-0.054 -0.075152 -0.013664
-0.054 -0.074176 -0.012688
-0.054 -0.071248 -0.012688
-0.054 -0.070272 -0.011712
-0.054 -0.066368 -0.011712
-0.054 -0.065392 -0.010736
-0.054 -0.061488 -0.010736
-0.054 -0.060512 -0.00976
-0.054 -0.05368 -0.00976
-0.054 -0.052704 -0.008784
-0.054 -0.045872 -0.008784
-0.054 -0.044896 -0.007808
-0.054 -0.03416 -0.007808
-0.054 -0.033184 -0.006832
-0.054 0.013664 -0.006832
-0.054 0.01464 -0.007808
-0.054 0.037088 -0.007808
-0.054 0.038064 -0.008784
-0.054 0.052704 -0.008784
-0.054 0.05368 -0.00976
-0.054 0.064416 -0.00976
-0.054 0.065392 -0.010736
-0.054 0.072224 -0.010736
-0.054 0.0732 -0.011712
-0.054 0.076128 -0.011712
-0.054 0.077104 -0.012688
-0.054 0.080032 -0.012688
-0.054 0.081008 -0.013664
-0.054 0.08296 -0.013664
-0.054 0.083936 -0.01464
-0.054 0.084912 -0.01464
-0.054 0.085888 -0.015616
-0.054 0.088816 -0.015616
-0.054 0.089792 -0.016592
-0.054 0.090768 -0.016592
-0.054 0.091744 -0.017568
-0.054 0.09272 -0.017568
-0.054 0.093696 -0.018544
-0.054 0.094672 -0.018544
-0.054 0.095648 -0.01952
-0.054 0.096624 -0.01952
-0.054 0.098576 -0.021472
-0.054 0.099552 -0.021472
-0.054 0.10248 -0.0244
-0.054 0.103456 -0.0244
-0.054 0.111264 -0.032208
-0.054 0.113216 -0.035136
-0.054 0.115168 -0.038064
-0.054 0.116144 -0.040016
-0.054 0.118096 -0.042944
-0.054 0.119072 -0.044896
-0.054 0.120048 -0.047824
-0.054 0.121024 -0.049776
-0.054 0.122 -0.051728
-0.054 0.122976 -0.05368
-0.054 0.123952 -0.055632
-0.054 0.124928 -0.057584
-0.054 0.125904 -0.060512
-0.054 0.12688 -0.062464
-0.054 0.127856 -0.064416
-0.054 0.128832 -0.067344
-0.054 0.129808 -0.069296
-0.054 0.130784 -0.071248
-0.054 0.13176 -0.074176
-0.054 0.132736 -0.077104
-0.054 0.133712 -0.080032
-0.054 0.134688 -0.083936
-0.054 0.135664 -0.086864
-0.054 0.13664 -0.091744
-0.054 0.137616 -0.098576
-0.057 -0.130784 -0.096624
-0.057 -0.129808 -0.090768
-0.057 -0.128832 -0.086864
-0.057 -0.127856 -0.081984
-0.057 -0.12688 -0.079056
-0.057 -0.125904 -0.075152
-0.057 -0.124928 -0.072224
-0.057 -0.123952 -0.069296
-0.057 -0.122976 -0.067344
-0.057 -0.122 -0.064416
-0.057 -0.121024 -0.062464
-0.057 -0.120048 -0.060512
-0.057 -0.119072 -0.057584
-0.057 -0.118096 -0.055632
-0.057 -0.11712 -0.05368
-0.057 -0.116144 -0.051728
-0.057 -0.115168 -0.049776
-0.057 -0.114192 -0.047824
-0.057 -0.113216 -0.044896
-0.057 -0.11224 -0.042944
-0.057 -0.110288 -0.040016
-0.057 -0.109312 -0.038064
-0.057 -0.105408 -0.033184
-0.057 -0.095648 -0.023424
-0.057 -0.094672 -0.023424
-0.057 -0.091744 -0.020496
-0.057 -0.090768 -0.020496
-0.057 -0.088816 -0.018544
-0.057 -0.08784 -0.018544
-0.057 -0.086864 -0.017568
-0.057 -0.085888 -0.017568
-0.057 -0.084912 -0.016592
-0.057 -0.083936 -0.016592
-0.057 -0.08296 -0.015616
-0.057 -0.081008 -0.015616
-0.057 -0.080032 -0.01464
-0.057 -0.079056 -0.01464
-0.057 -0.07808 -0.013664
-0.057 -0.075152 -0.013664
-0.057 -0.074176 -0.012688
-0.057 -0.071248 -0.012688
-0.057 -0.070272 -0.011712
-0.057 -0.066368 -0.011712
-0.057 -0.065392 -0.010736
-0.057 -0.060512 -0.010736
-0.057 -0.059536 -0.00976
-0.057 -0.051728 -0.00976
-0.057 -0.050752 -0.008784
-0.057 -0.040992 -0.008784
-0.057 -0.040016 -0.007808
-0.057 -0.022448 -0.007808
-0.057 -0.021472 -0.006832
-0.057 -0.000976 -0.006832
-0.057 0 -0.007808
-0.057 0.021472 -0.007808
-0.057 0.022448 -0.008784
-0.057 0.046848 -0.008784
-0.057 0.047824 -0.00976
-0.057 0.06344 -0.00976
-0.057 0.064416 -0.010736
-0.057 0.071248 -0.010736
-0.057 0.072224 -0.011712
-0.057 0.077104 -0.011712
-0.057 0.07808 -0.012688
-0.057 0.080032 -0.012688
-0.057 0.081008 -0.013664
-0.057 0.083936 -0.013664
-0.057 0.084912 -0.01464
-0.057 0.085888 -0.01464
-0.057 0.086864 -0.015616
-0.057 0.088816 -0.015616
-0.057 0.089792 -0.016592
-0.057 0.090768 -0.016592
-0.057 0.091744 -0.017568
-0.057 0.09272 -0.017568
-0.057 0.093696 -0.018544
-0.057 0.094672 -0.018544
-0.057 0.095648 -0.01952
-0.057 0.096624 -0.01952
-0.057 0.098576 -0.021472
-0.057 0.099552 -0.021472
-0.057 0.101504 -0.023424
-0.057 0.10248 -0.023424
-0.057 0.111264 -0.032208
-0.057 0.114192 -0.036112
-0.057 0.115168 -0.038064
-0.057 0.11712 -0.040992
-0.057 0.118096 -0.04392
-0.057 0.119072 -0.045872
-0.057 0.120048 -0.047824
-0.057 0.121024 -0.049776
-0.057 0.122 -0.051728
-0.057 0.122976 -0.05368
-0.057 0.123952 -0.055632
-0.057 0.124928 -0.057584
-0.057 0.125904 -0.060512
-0.057 0.12688 -0.062464
-0.057 0.127856 -0.064416
-0.057 0.128832 -0.067344
-0.057 0.129808 -0.069296
-0.057 0.130784 -0.072224
-0.057 0.13176 -0.075152
-0.057 0.132736 -0.077104
-0.057 0.133712 -0.080032
-0.057 0.134688 -0.083936
-0.057 0.135664 -0.086864
-0.057 0.13664 -0.091744
-0.057 0.137616 -0.0976
-0.06 -0.13176 -0.111264
-0.06 -0.130784 -0.098576
-0.06 -0.129808 -0.091744
-0.06 -0.128832 -0.08784
-0.06 -0.127856 -0.08296
-0.06 -0.12688 -0.079056
-0.06 -0.125904 -0.076128
-0.06 -0.124928 -0.0732
-0.06 -0.123952 -0.070272
-0.06 -0.122976 -0.067344
-0.06 -0.122 -0.065392
-0.06 -0.121024 -0.062464
-0.06 -0.120048 -0.060512
-0.06 -0.119072 -0.05856
-0.06 -0.118096 -0.056608
-0.06 -0.11712 -0.054656
-0.06 -0.116144 -0.051728
-0.06 -0.115168 -0.049776
-0.06 -0.114192 -0.047824
-0.06 -0.113216 -0.045872
-0.06 -0.11224 -0.04392
-0.06 -0.111264 -0.041968
-0.06 -0.110288 -0.040016
-0.06 -0.108336 -0.037088
-0.06 -0.105408 -0.033184
-0.06 -0.095648 -0.023424
-0.06 -0.094672 -0.023424
-0.06 -0.09272 -0.021472
-0.06 -0.091744 -0.021472
-0.06 -0.088816 -0.018544
-0.06 -0.08784 -0.018544
-0.06 -0.086864 -0.017568
-0.06 -0.085888 -0.017568
-0.06 -0.084912 -0.016592
-0.06 -0.08296 -0.016592
-0.06 -0.081984 -0.015616
-0.06 -0.081008 -0.015616
-0.06 -0.080032 -0.01464
-0.06 -0.07808 -0.01464
-0.06 -0.077104 -0.013664
-0.06 -0.075152 -0.013664
-0.06 -0.074176 -0.012688
-0.06 -0.071248 -0.012688
-0.06 -0.070272 -0.011712
-0.06 -0.065392 -0.011712
-0.06 -0.064416 -0.010736
-0.06 -0.05856 -0.010736
-0.06 -0.057584 -0.00976
-0.06 -0.047824 -0.00976
-0.06 -0.046848 -0.008784
-0.06 -0.036112 -0.008784
-0.06 -0.035136 -0.007808
-0.06 0.006832 -0.007808
-0.06 0.007808 -0.008784
-0.06 0.03416 -0.008784
-0.06 0.035136 -0.00976
-0.06 0.056608 -0.00976
-0.06 0.057584 -0.010736
-0.06 0.071248 -0.010736
-0.06 0.072224 -0.011712
-0.06 0.077104 -0.011712
-0.06 0.07808 -0.012688
-0.06 0.081008 -0.012688
-0.06 0.081984 -0.013664
-0.06 0.083936 -0.013664
-0.06 0.084912 -0.01464
-0.06 0.085888 -0.01464
-0.06 0.086864 -0.015616
-0.06 0.088816 -0.015616
-0.06 0.089792 -0.016592
-0.06 0.091744 -0.016592
-0.06 0.093696 -0.018544
-0.06 0.094672 -0.018544
-0.06 0.095648 -0.01952
-0.06 0.096624 -0.01952
-0.06 0.098576 -0.021472
-0.06 0.099552 -0.021472
-0.06 0.101504 -0.023424
-0.06 0.10248 -0.023424
-0.06 0.111264 -0.032208
-0.06 0.113216 -0.035136
-0.06 0.115168 -0.038064
-0.06 0.11712 -0.040992
-0.06 0.118096 -0.04392
-0.06 0.119072 -0.045872
-0.06 0.120048 -0.047824
-0.06 0.121024 -0.049776
-0.06 0.122 -0.051728
-0.06 0.122976 -0.054656
-0.06 0.123952 -0.056608
-0.06 0.124928 -0.05856
-0.06 0.125904 -0.060512
-0.06 0.12688 -0.062464
-0.06 0.127856 -0.064416
-0.06 0.128832 -0.067344
-0.06 0.129808 -0.070272
-0.06 0.130784 -0.072224
-0.06 0.13176 -0.074176
-0.06 0.132736 -0.077104
-0.06 0.133712 -0.080032
-0.06 0.134688 -0.08296
-0.06 0.135664 -0.086864
-0.06 0.13664 -0.091744
-0.06 0.137616 -0.0976
-0.063 -0.130784 -0.098576
-0.063 -0.129808 -0.09272
-0.063 -0.128832 -0.086864
-0.063 -0.127856 -0.08296
-0.063 -0.12688 -0.079056
-0.063 -0.125904 -0.076128
-0.063 -0.124928 -0.0732
-0.063 -0.123952 -0.070272
-0.063 -0.122976 -0.067344
-0.063 -0.122 -0.065392
-0.063 -0.121024 -0.06344
-0.063 -0.120048 -0.060512
-0.063 -0.119072 -0.05856
-0.063 -0.118096 -0.056608
-0.063 -0.11712 -0.054656
-0.063 -0.116144 -0.052704
-0.063 -0.115168 -0.049776
-0.063 -0.114192 -0.047824
-0.063 -0.113216 -0.045872
-0.063 -0.11224 -0.04392
-0.063 -0.111264 -0.041968
-0.063 -0.109312 -0.03904
-0.063 -0.108336 -0.037088
