# .PCD v0.7 - Point Cloud Data file format
VERSION 0.7
FIELDS x y z
SIZE 4 4 4
TYPE F F F
COUNT 1 1 1
WIDTH 54
HEIGHT 1
VIEWPOINT 0 0 0 1 0 0 0
POINTS 54
DATA ascii
-0.001140448429 2.559349898e-06 -0
-1.980799921e-05 -1.281572449e-05 -0
-0.001140448429 2.559349898e-06 -0
-4.288862328e-05 4.288867328e-05 -0
0.0003582263179 0.0003907923243 -0
-5.820702267e-05 -5.914382263e-05 6.808890562e-07
-0.0001140449387 2.559352047e-07 -0.0004264402933
-1.286659093e-05 1.286660593e-05 2.973063559e-05
-0.0003421346337 7.678052047e-07 0.0004264402933
0.0001628301248 0 -0
7.088239958e-05 -3.581183568e-05 -0.0001089684752
-4.288862328e-05 4.288867328e-05 -0
-4.288865931e-06 4.288870931e-06 -2.973063559e-05
0.0002731874445 0.0003993125134 4.511969275e-05
-5.883406569e-06 0.0003683594932 0.0004831483096
-1.746211216e-05 -1.774315223e-05 3.998367479e-05
-4.153373608e-06 -0.0003642507521 0.0004869689208
-0 -0.00018750005 0.0002625
0 0 0.00075000005
-0.000225000075 -0 0.0002829751389
-0 -4.825146182e-06 0
-0 -7.081248472e-05 1.302200146e-05
-1.439835855e-05 -0.001262735653 0.0002322096954
-3.839902346e-05 -4.632809815e-05 -0
-9.451722311e-06 -8.604251266e-05 -0
-0.0001333757697 -0.001214168801 -0
-7.5000065e-05 -0 -0.0002829751389
-1.980801585e-06 -1.281573525e-06 -1.137873648e-05
-4.090488127e-05 -0.0001018305207 -0.0005207568099
-3.839905572e-06 -4.632813706e-06 -2.928582736e-05
0.000225000075 -0 0.0009557453437
-0 -0 0.00075000005
7.880408851e-05 0.0001151863282 0.0003346297965
-0 0.00018750005 0.0002625
0.0009159376552 -0.0003993125134 0.0001693777077
0.001237509048 -0.0003907923243 -0
0.0001628301248 -0 -0
0.0002642128455 -0.0001151863282 0.0007425290272
3.948318303e-05 0 0.0001677149145
-0 -0 -8.085191918e-05
-0.0001029086469 -0 -0.001245000173
-4.647442314e-05 0.001227864601 -0
-2.039580478e-05 0.001276979285 5.277475229e-05
0 7.081248472e-05 2.926524638e-06
-1.805848704e-05 -0 -0.0002184735703
-5.91361477e-05 -0.0001310841505 -0.001660399267
-0 -4.851115458e-05 -0.0006144746349
-0 -0 -8.085191918e-05
-5.203409886e-05 8.564715803e-05 -0.0004913303542
-3.972108605e-05 4.369473066e-05 -0.0004806419127
-7.208002997e-06 0.0001904370431 -0
-0 1.056032808e-05 0
-0 1.617038998e-05 -0.0001778742437
4.49070424e-05 6.241741838e-05 -3.154350726e-05
