# .PCD v0.7 - Point Cloud Data file format
VERSION 0.7
FIELDS x y z
SIZE 4 4 4
TYPE F F F
COUNT 1 1 1
WIDTH 56
HEIGHT 1
VIEWPOINT 0 0 0 1 0 0 0
POINTS 56
DATA ascii
-0.001152229254 0.0001179971203 -0
-0.0001153336823 1.181105438e-05 -0
-0.0003456688822 3.539914694e-05 0.0002907203516
-4.105530756e-05 -9.73356566e-05 -0.0004779717869
-0.0009820526194 -7.10621216e-05 -0.0003275980615
-0.0001638837381 5.165673018e-07 -3.33237488e-05
-0.0001091287048 -7.896641317e-06 -0.0002170056384
-7.5000065e-05 0 -0.0002211058047
-1.821126457e-05 5.740254592e-08 -5.376053124e-05
-2.846444886e-05 0.001168476503 -0
-4.804126281e-07 0.0003505430585 0.0004881018683
-0 7.081248472e-05 2.926524638e-06
-1.665430064e-06 0.001215215659 5.022219712e-05
-0 -0.00018750005 0.0002625
-4.153373608e-06 -0.0003642507521 0.0004869689208
0 0 0.00075000005
-0.000225000075 -0 0.0002987683399
-4.916498701e-06 -1.317365035e-06 -0
-1.746211216e-05 -1.774315223e-05 3.998367479e-05
-1.473533643e-05 -3.948301053e-06 2.254253059e-05
0.0002642128455 -0.0001151863282 0.0007425290272
-1.439835855e-05 -0.001262735653 0.0002322096954
-8.470621519e-06 -7.724921103e-05 0
-0.0001189774111 -0.001085120786 4.156298904e-07
-5.91361477e-05 -0.0001244251614 -0.001576052071
-5.37467776e-05 8.101232239e-05 -0.0004961316771
-4.414725753e-06 0.0001812261792 -0
4.49070424e-05 6.241741838e-05 -3.154350726e-05
-0 1.056032808e-05 0
0.0002731874445 0.0003993125134 4.511969275e-05
0.0003582263179 0.0003907923243 -0
0.0001628301248 -0 -0
3.948318303e-05 -0 0.0001677149145
-5.826297359e-06 -5.920067404e-06 -0
-4.420127433e-05 -1.184363444e-05 -1.288240428e-05
-4.916498701e-06 -1.317365035e-06 -0
-0 -4.825146182e-06 -0
-0 -7.081248472e-05 1.302200146e-05
0.0009159376552 -0.0003993125134 0.0001693777077
0 -4.851115458e-05 -0.0006144746349
7.088239958e-05 -3.581183568e-05 -0.0001089684752
0.001237509048 -0.0003907923243 -0
0.0001628301248 0 0
-0 1.617038998e-05 -0.0001778742437
-0 -0 -8.085191918e-05
-0 0 -8.085191918e-05
-3.972108605e-05 4.147506693e-05 -0.000456225618
-0.0001029086469 -0 -0.001181754979
-1.805848704e-05 0 -0.0002073752559
-0 0.00018750005 0.0002625
7.880408851e-05 0.0001151863282 0.0003346297965
0.000225000075 -0 0.0009557453437
-0 -0 0.00075000005
-5.826297359e-06 -5.920067404e-06 -0
-1.385788241e-06 -1.242038951e-05 -0
-5.238072531e-05 -5.322375523e-05 -1.02460412e-05
