# .PCD v0.7 - Point Cloud Data file format
VERSION 0.7
FIELDS x y z
SIZE 4 4 4
TYPE F F F
COUNT 1 1 1
WIDTH 66
HEIGHT 1
VIEWPOINT 0 0 0 1 0 0 0
POINTS 66
DATA ascii
-2.488488762e-05 -3.149525778e-05 -6.471528506e-05
-1.646294084e-05 -2.083612245e-05 -0
-2.667862363e-05 -0 -0
-1.646294084e-05 -2.083612245e-05 0
-5.718569184e-07 -6.805467112e-05 0
-5.718569184e-07 -6.805467112e-05 -0
-2.928472769e-06 -1.40713282e-05 -1.997806013e-05
-7.857795718e-07 -9.351285019e-05 -0.0001099933038
8.513248437e-05 -2.038039502e-05 -0
-5.992867645e-06 -1.045249637e-06 -9.134695628e-06
-3.921499925e-05 -0 -5.267803321e-05
-0 1.81637761e-05 -0
0 1.203259265e-05 -0
2.091235905e-05 1.056527822e-05 6.157440983e-05
0.0002255277473 -4.172121513e-05 8.336012055e-06
1.616497168e-06 3.847898121e-07 8.134133183e-06
-0.0003018584266 8.859564038e-05 -0.0003396774743
-1.78160224e-05 3.548305996e-06 -2.147151791e-05
-5.976655605e-07 8.074380194e-08 -1.062038997e-06
2.199509087e-06 -8.074370191e-08 -5.398065862e-07
-0 4.801784948e-06 -0
-2.667862363e-05 -0 -0
-0.0001919750737 3.88749372e-05 -0
-8.602045039e-05 1.868381284e-05 -6.392180591e-06
-1.107609076e-05 3.161909519e-06 -1.09512855e-05
0 1.247685012e-06 0
-1.666819438e-06 -2.109589912e-06 3.111029286e-05
-5.789866082e-08 -6.890315032e-06 7.823589888e-05
0.0001224735248 1.349170882e-06 2.749822201e-06
1.189979036e-05 4.914685103e-07 5.540938749e-07
0.0001298756858 3.44157547e-05 2.38815953e-05
8.666664855e-06 -2.065762495e-06 5.63398644e-05
8.44788739e-06 -3.500851809e-07 6.714826795e-05
-4.766490654e-09 -4.321725444e-07 4.239917645e-05
-1.654107958e-08 -2.495145812e-06 2.836822047e-05
-1.367485288e-05 4.447950706e-06 -1.598929394e-05
8.003145265e-06 1.60192729e-07 -1.8916007e-07
1.461126631e-06 1.968627483e-07 -3.125182308e-07
2.498778702e-05 1.383795537e-05 -7.095441119e-06
6.385257719e-06 5.743361323e-06 -4.622359703e-06
1.03847156e-05 3.155627989e-07 1.678563332e-07
5.15840323e-05 7.829105144e-07 9.784355567e-07
2.334518047e-05 7.304142259e-06 1.116158254e-05
1.123915813e-05 5.150048547e-06 2.350739376e-05
-0 1.317683523e-06 -0
-0 3.678680267e-07 -0
1.635124949e-05 8.556664927e-06 -3.877656322e-06
1.244370315e-05 3.89464935e-06 7.777338811e-07
7.127483985e-05 2.31013852e-05 1.986412009e-06
-2.242240355e-05 6.268798105e-06 2.24223507e-05
0 1.681881992e-06 -0
-4.373355704e-07 -2.072645933e-07 3.020853054e-05
-3.409030377e-05 1.163140619e-05 8.080303691e-05
-2.900432528e-06 -0 2.081389795e-05
1.287403886e-05 1.447534432e-05 -1.287402369e-05
-0 2.978800806e-06 0
-3.735781992e-06 3.621023763e-05 -4.952676266e-05
-0 3.58049944e-07 -0
6.27153399e-07 1.750492024e-06 1.103063842e-05
-5.779620075e-07 -6.626749136e-08 6.490387603e-06
-9.593578166e-07 -2.020594821e-07 9.568715804e-06
-4.561367624e-06 -3.492463791e-07 3.927610087e-05
-5.13533731e-06 1.884862357e-06 1.319864262e-05
-2.006932665e-06 1.331033237e-06 8.462857703e-06
-1.311816034e-06 2.445316102e-06 1.726243288e-05
-3.576049611e-06 2.665424414e-06 2.413210391e-05
