# .PCD v0.7 - Point Cloud Data file format
VERSION 0.7
FIELDS x y z
SIZE 4 4 4
TYPE F F F
COUNT 1 1 1
WIDTH 52
HEIGHT 1
VIEWPOINT 0 0 0 1 0 0 0
POINTS 52
DATA ascii
0 -0 -0.0005181770756
-0 0 0.0001929695982
-0 -0 -3.177704098e-05
-0.001018088659 -0 -0
-0.001018088659 -0 -0
-0 0.0009513267486 -0
-0 -0 0.0004308959568
0 0 -0.0001676103847
0 0 4.135562039e-05
-0.000487844676 -7.494108847e-05 -0
0 -0 -0.0001615191853
-0.000139624191 -0.0002075491316 1.251405618e-08
-0 -0 0.0006128987794
0.0001650562495 8.770774678e-05 -0
2.704586314e-05 0.0002859139029 -7.93761235e-06
5.845653798e-06 0.000338540938 -2.501620518e-06
0 0 -3.636539746e-06
0.0002715799214 0.0001468397807 -3.233428816e-06
6.917963247e-05 0.0001661534062 -1.12714841e-05
-2.919777031e-05 -6.423153412e-06 -4.593988229e-06
-0.0004460318166 -6.851793506e-05 -0
-1.312869822e-05 -1.949034656e-05 -1.393994771e-05
-0.0001399880267 -0.0002079100738 -0
0.0002060291274 -0.0001856472058 -8.269127295e-05
5.995914662e-05 -0.000160021284 -3.269784825e-05
1.58332824e-05 -0.0006544209983 1.234522521e-07
7.751006478e-06 -0.0002882917906 6.276362798e-07
0.0001080835772 -0 -0
0 -0 -3.72560194e-05
2.995519013e-06 -4.285419651e-05 -6.587439579e-05
1.007110265e-05 -2.685859936e-05 -3.04189709e-05
1.734370274e-05 -2.885098781e-05 -3.396190079e-05
-0 -0 0.0001517253842
4.23818117e-05 4.444539678e-05 7.479811953e-05
0.0001711847303 0.0001205079078 -4.342026082e-05
5.239098978e-05 2.373065843e-05 -3.839129184e-05
0.0002802936491 0.0001079710296 -3.668791183e-05
0.0002848589299 4.449036042e-05 -4.485130992e-05
0 -0 -2.606363237e-06
0.0001784345412 -2.230433147e-05 -4.581753665e-05
1.356037505e-05 -0 -3.416764837e-06
0.0002295314565 -1.583354732e-06 -5.493624743e-05
5.884107325e-05 -1.176865679e-05 -1.472896373e-05
0.000321457207 -0.0001527576328 -7.929704703e-05
5.549516127e-05 0 -0
-0 -0 3.636539746e-06
4.680450727e-07 2.710602156e-05 2.501620518e-06
2.16548626e-06 2.289232276e-05 7.93761235e-06
0.0002175441942 -0.0001033816163 -0
0.0002167192178 -0.000104053837 5.919349724e-07
-0 -0 5.317764464e-05
0.0001998918443 -0 -0
