# .PCD v0.7 - Point Cloud Data file format
VERSION 0.7
FIELDS x y z
SIZE 4 4 4
TYPE F F F
COUNT 1 1 1
WIDTH 50
HEIGHT 1
VIEWPOINT 0 0 0 1 0 0 0
POINTS 50
DATA ascii
-0 -0.0004683636787 -0
0.001826402918 -2.586578157e-05 -0
0.0001732449182 -2.453519521e-06 -0.0004848560934
0.0001819242875 -2.967578486e-06 -0.0005144640652
-2.78801303e-05 -0.0003767364999 -1.017847785e-05
-0 -8.300118768e-05 -0
-8.376022163e-05 -3.548528701e-05 -0
-0.0004145258171 -0.0002163862405 -2.341848826e-05
-0.0002202197857 -9.113871938e-05 -2.855224402e-05
-8.739701638e-05 -3.747231608e-05 -1.086141443e-05
1.574665308e-05 -4.184686948e-07 -0.0001183650081
-0.00026879019 7.139950201e-07 -1.144216774e-06
-0.000169369613 5.266172765e-06 1.000662935e-07
-0 -0 0.0005551385081
0.001848106885 -0 3.065799515e-05
6.717435825e-06 1.914133421e-07 -0.0001264981392
-1.587697259e-07 1.864798604e-08 -2.187575361e-05
-4.491211025e-07 2.107962092e-08 -0.0001434396498
8.515244833e-07 1.233257988e-07 -0.0001054884828
-0.0001340439477 4.010756873e-05 -1.652210211e-05
-0.000154457025 4.603619369e-05 -1.90216552e-05
-3.510616893e-05 1.037229014e-06 2.79534326e-05
-0.0003509065417 -0 0.00031397579
-0 -0 0.0005551385081
-0.0002144516836 -6.066048376e-05 1.544966976e-05
-0.0003241408828 -9.688729151e-05 1.738738289e-05
-0.0002021637304 -3.858601306e-05 -1.692501831e-06
-0.0001024019763 -8.387145569e-06 -1.090369704e-07
-0.0001050888307 3.793180658e-06 8.273670558e-08
-0.000280431203 3.839846082e-05 -1.69860249e-06
0.0002131174403 0.0003988983432 -2.017172799e-06
-0 0.0004624350106 5.757973552e-05
-0.0001172036341 3.32917312e-05 1.252854649e-05
-0.0003954223589 0.0001127330921 4.167757468e-05
-3.086330988e-05 7.217249094e-06 2.238465563e-06
-8.272909544e-06 1.836265349e-06 5.871301935e-07
-5.955842976e-05 2.205824655e-05 4.901895817e-06
1.08895213e-06 2.407530291e-06 -4.977751711e-07
1.305619905e-05 2.462390031e-05 -5.642295013e-06
8.428009364e-06 1.604404055e-05 -2.989007198e-06
-1.018342047e-06 7.654709351e-07 -1.550325007e-06
-0.0002054321131 0.0001150618162 -2.019789063e-07
-3.782679013e-05 2.058108801e-05 -4.11430625e-07
-1.234264353e-05 2.137804247e-05 1.900190811e-06
-8.973116242e-05 5.488187268e-05 5.467189916e-07
-9.479014755e-06 7.9582498e-06 -1.332754548e-06
-1.344020705e-06 2.327907441e-06 -3.083891484e-07
-5.329488067e-05 3.98435959e-05 2.098231781e-06
-7.145015611e-06 4.690304288e-06 3.242449622e-07
-8.400794157e-05 6.006918711e-05 2.870235959e-06
