# .PCD v0.7 - Point Cloud Data file format
VERSION 0.7
FIELDS x y z
SIZE 4 4 4
TYPE F F F
COUNT 1 1 1
WIDTH 60
HEIGHT 1
VIEWPOINT 0 0 0 1 0 0 0
POINTS 60
DATA ascii
0 -0 -0.00162400006
-0 -0.0003874142157 -0.000644000102
-0.00290000077 -0 -4.63999404e-05
-0.00128528756 -0 -0
-0.007027069408 0 -0.0001124329363
-0.002729878478 0 -0
-0 -0 -0.00162400006
0.003190000702 -0 -0.0004207786755
-0.0004816830031 -0 0
4.063844845e-05 -4.261179121e-05 0.0002619770006
0.0009383458916 -0.0006557437169 -0.0002814767623
0.002343476457 -0.0003990143766 -0.0001712761738
0.0003259965808 -5.550613581e-05 -1.009396568e-05
-1.004787287e-05 -6.930768701e-05 -0.000103535015
-0.0005713503818 -0.0005902121274 -0.0004877013179
-0.000573489681 0.0006762296415 -0.0005772085897
-0 0.0004110070174 -0.0006663999636
0.002703092178 0.0003990143766 -0.0002187114697
0.00110000028 -0 -0.0001450961
8.032524064e-05 4.263554105e-05 0.0004884501233
-2.684678377e-07 -0 0.001234419669
-0 -3.019996225e-09 3.370304027e-05
-0 -5.418454827e-06 2.490997366e-05
-4.461154897e-06 -1.482911702e-05 6.673102549e-05
6.908541927e-05 -0.0001376237161 0.0006468622885
-8.332672751e-06 -2.769824903e-05 -0
-8.332672751e-06 -2.769824903e-05 -0
-2.353189971e-05 -7.822129081e-05 -4.655687461e-05
-7.950926111e-06 -0.000156375469 -8.19277139e-05
4.59056727e-05 -4.813478405e-05 -0
5.655081155e-05 -4.813478405e-05 -8.75346214e-06
0.0003042558779 -0.0002589757879 -9.195338352e-05
0.0004598708764 -0.0008082603194 -0.0002199926977
0.0001290397227 -0.0002570575145 -0
7.803970785e-05 -0.0001554613798 -0
0.00011999972 -0 -0
0.0003760220442 5.550613581e-05 -0
0.0002948820199 4.352872843e-05 -0
0.0004256499536 3.027362855e-05 0.0009692202586
-0 0.0002847557635 -0
-0 0.000795032464 -0.0004096576015
0.0008026443508 0.0003460242831 -0.000189666047
9.068579913e-05 4.813478405e-05 -0
0.0001499502073 7.959152276e-05 0
0 0.0001524528332 0.0008766037738
-0.0004926935599 0 -0
-0 0.0002847557635 -0
-0 3.019996225e-09 2.319073501e-05
-0 5.418454827e-06 3.115611465e-05
0.0001961940197 0.0001122272742 0.001274135911
0.0002440436725 -0.0001125822168 0.001257171669
5.796932339e-08 -3.203812993e-08 0.0001032852251
5.136680363e-05 4.431344638e-07 0.0001143229625
0.00011999972 -0 -0
0.00026399939 -4.352872843e-05 -0
0.00016851784 0 0.00037280896
0.0003822514508 -3.03535321e-05 0.0008707676455
9.634009376e-06 6.562945573e-05 -3.611328911e-05
1.259831421e-05 3.6913143e-05 -4.722504885e-05
0.0005512573574 0.0005406217361 -0.0003847591269
