# .PCD v0.7 - Point Cloud Data file format
VERSION 0.7
FIELDS x y z
SIZE 4 4 4
TYPE F F F
COUNT 1 1 1
WIDTH 131
HEIGHT 1
VIEWPOINT 0 0 0 1 0 0 0
POINTS 131
DATA ascii
-0.06019999832 -0.07100000232 0.02599998564
-0.06019999832 0.07020000368 0.03049999289
-0.01400000136 -0.02899999917 0.08100000024
-0.05519999936 -0.07100000232 0.03099998459
-1.40660668e-05 -0.05279999599 0.06649994105
0.01400000136 -0.02899999917 0.08100000024
-0.0001395279833 -0.05279999599 0.06649348885
0.0148 -0.07100000232 0.03099998459
-0.0005065618898 -0.05279999599 0.06641186029
0.001016521826 -0.05279999599 0.06610301882
-0.01400000136 0.02899999917 0.08100000024
-2.813210813e-05 0.05200000107 0.06799986213
0.01400000136 0.02899999917 0.08100000024
0.0148 -0.07020000368 -0.2598000169
0.01400000136 -0.05999999866 -0.2709999979
0.0148 -0.05900000036 -0.2709999979
0.0148 -0.07100000232 -0.2590000033
0.01400000136 -0.07100000232 -0.2598000169
0.0027999999 -0.07100000232 -0.2709999979
-0.0003866425832 -0.05279999599 0.06644931436
0.002210512524 0.05200000107 0.06702819467
0.0148 0.07100000232 0.03099998459
0.002033043653 0.05200000107 0.06720605493
-0.05970000103 0.07100000232 0.03099998459
-0.06019999832 0.07100000232 0.03049999289
0.0148 0.07020000368 -0.2598000169
0.01400000136 0.05999999866 -0.2709999979
0.0148 0.05900000036 -0.2709999979
0.0148 0.07100000232 -0.2590000033
0.01400000136 0.07100000232 -0.2598000169
0.0027999999 0.07100000232 -0.2709999979
-0.002499662107 4.110046575e-05 -0.2712000012
-0.04019999877 0.07100000232 -0.2709999979
-0.04019999877 -0.07100000232 -0.2709999979
-0.000264011207 -0.05279999599 0.06647657603
-0.00101312378 0.05200000107 0.06782375276
0.001919087721 0.001602217904 -0.2712000012
0.0001114945044 -0.05279999599 0.06649585813
0.0002362730302 -0.05279999599 0.06648126245
0.0003593942674 -0.05279999599 0.06645629555
0.0004799946037 -0.05279999599 0.06642112881
0.0009206571849 -0.05279999599 0.06618421525
0.0005972281797 -0.05279999599 0.06637596339
0.0007102725212 -0.05279999599 0.06632117927
0.0002229890379 0.05200000107 0.0679916963
0.0004725460894 0.05200000107 0.06796253473
0.0007187885349 0.05200000107 0.06791260093
0.00184131437 0.05200000107 0.06736844778
0.001636669738 0.05200000107 0.06751421094
0.001420545159 0.05200000107 0.06764234602
0.001194456359 0.05200000107 0.06775195897
0.001778287115 0.001757183811 -0.2712000012
0.002499190625 6.361057603e-05 -0.2712000012
0.0008183348691 -0.05279999599 0.06625709683
0.0009599892655 0.05200000107 0.06784223765
-0.0002790559374 0.05200000107 0.06798698753
-0.0005280223559 0.05200000107 0.06795314699
-0.0007732851082 0.05200000107 0.06789861619
9.344039427e-05 0.002498253249 -0.2712000012
0.001998110907 -0.001502515515 -0.2712000012
0.001719556749 -0.001814696821 -0.2712000012
-0.002494334709 -0.0001682100119 -0.2712000012
-0.002471511252 -0.0003763405839 -0.2712000012
-0.002431351924 -0.0005818314967 -0.2712000012
-0.00237413845 -0.0007832411793 -0.2712000012
-0.002104766434 -0.001349058468 -0.2712000012
-0.001984498231 -0.001520449412 -0.2712000012
-0.002210270846 -0.001168204821 -0.2712000012
-0.002300271997 -0.0009791570483 -0.2712000012
-0.0008115269593 -0.002364619169 -0.2712000012
-0.0006108145462 -0.002424232895 -0.2712000012
-0.001006547012 -0.002288419288 -0.2712000012
-0.001194506884 -0.002196167829 -0.2712000012
-0.001374088228 -0.002088511828 -0.2712000012
-0.00185031048 -0.001681175549 -0.2712000012
-0.001703144051 -0.001830109395 -0.2712000012
-0.001544031431 -0.001966206357 -0.2712000012
0.002046427457 0.001436013612 -0.2712000012
0.002159412717 0.0012597366 -0.2712000012
0.002257251414 0.001074623549 -0.2712000012
0.00233925716 0.0008819727809 -0.2712000012
0.002485102741 0.0002725143568 -0.2712000012
0.002453583758 0.0004795066779 -0.2712000012
0.002404854633 0.0006831355859 -0.2712000012
0.00186537602 -0.00166444364 -0.2712000012
0.001625013072 0.001899824245 -0.2712000012
0.001460340573 0.002029139083 -0.2712000012
0.001285425154 0.002144220751 -0.2712000012
0.001101493137 0.002244262258 -0.2712000012
0.0005087624304 0.002447684761 -0.2712000012
0.000711795059 0.002396528376 -0.2712000012
0.0009098349838 0.002328561852 -0.2712000012
0.002495748457 -0.0001457393955 -0.2712000012
0.002474800218 -0.0003540670732 -0.2712000012
0.002436493291 -0.0005599113065 -0.2712000012
0.002381095896 -0.0007618281525 -0.2712000012
0.002116830554 -0.001330048312 -0.2712000012
0.002220702125 -0.001148251933 -0.2712000012
0.002308997093 -0.0009584012441 -0.2712000012
1.125749714e-05 -0.002499974566 -0.2712000012
0.0003021611192 0.002481672447 -0.2712000012
-0.00245780265 0.0004573903861 -0.2712000012
-0.002410909394 0.0006614498561 -0.2712000012
-0.002347105183 0.0008608698263 -0.2712000012
-0.002266837982 0.001054251334 -0.2712000012
-0.001794040087 0.001741097425 -0.2712000012
-0.001642056857 0.001885112724 -0.2712000012
-0.002170670312 0.001240238082 -0.2712000012
-0.002059277147 0.001417525462 -0.2712000012
-0.0001159357416 0.002497310285 -0.2712000012
-0.0003244986874 0.002478850773 -0.2712000012
-0.0005307854735 0.002443003701 -0.2712000012
-0.0007333492977 0.00239002076 -0.2712000012
-0.001478555845 0.002015904989 -0.2712000012
-0.001304683741 0.002132557333 -0.2712000012
-0.0009307690198 0.002320273547 -0.2712000012
0.0002204104967 -0.002490264829 -0.2712000012
-0.0004058177874 -0.002466842532 -0.2712000012
0.001392841456 -0.002076052129 -0.2712000012
0.001214237069 -0.00218532118 -0.2712000012
0.001027115504 -0.002279261593 -0.2712000012
-0.002487456193 0.0002501226554 -0.2712000012
-0.001933439402 0.001584869577 -0.2712000012
-0.001121660229 0.002234251238 -0.2712000012
0.0004280174908 -0.002463087672 -0.2712000012
0.000632622221 -0.002418633783 -0.2712000012
-0.0001979744702 -0.002492148895 -0.2712000012
0.001561676036 -0.001952221151 -0.2712000012
0.0008327895775 -0.002357214689 -0.2712000012
-0.06019999832 -0.07100000232 -0.2510000169
-0.06019999832 0.07100000232 -0.2510000169
