# .PCD v0.7 - Point Cloud Data file format
VERSION 0.7
FIELDS x y z
SIZE 4 4 4
TYPE F F F
COUNT 1 1 1
WIDTH 62
HEIGHT 1
VIEWPOINT 0 0 0 1 0 0 0
POINTS 62
DATA ascii
0 -0 -0.004024374655
-0 0 0.001130209689
-0 -0 -0.0005534525053
-0.0003309517206 -0 -8.4872043e-05
0 -0 -0.002887224169
-0 -0 0.003996875974
-0.0003424010113 -0.0002246509156 -0.0001087770142
-0.0001378646846 -9.427110344e-05 -6.734136187e-05
0 -0 0.001459537976
-0 -0 0.001116086322
-0.0001822008981 -0.0001283614548 -1.238302148e-05
0 0 6.135092149e-05
0 -0 0.0002196125114
1.410713796e-06 0.0003698089461 -0.0002339756335
0 0 -5.118994656e-05
1.87095276e-05 6.846727677e-05 -2.204945338e-06
-1.435349477e-05 8.343540358e-05 -4.105841296e-07
-3.268228419e-06 0.0002407587827 -0.0001058373561
-2.91825903e-06 0.0002504295541 -5.999204302e-06
-3.428449494e-06 0.0002426609998 -1.095111273e-06
6.905059633e-05 -1.426891255e-05 -0
0.0001262822953 -0.0001059634619 0.0001830724803
-0 -0 0.0004145806097
0.0003023013726 -0 -0.0001569580438
7.635363134e-05 -1.577804315e-05 -0
0.0001511780297 -0 0
-1.070796393e-05 -1.854674506e-05 -0
0 -0 -5.076388379e-05
4.996698545e-06 -8.654581902e-06 -0
-0 0 2.87375841e-05
5.389790099e-06 -3.05670192e-05 -6.265765016e-07
-0.0001551832711 1.413232742e-05 -0
-1.315590318e-05 7.489755556e-05 -0
-3.266318382e-05 5.657430197e-05 5.650278772e-05
3.657833373e-06 3.657818378e-06 -0
1.757824041e-05 5.783280147e-05 -0
0.0001511780297 -0 -0
7.635363134e-05 1.577804315e-05 0
0.0001503900552 -0 -7.80840942e-05
-6.892314377e-06 -9.24692032e-06 -7.012494299e-07
-6.165646521e-06 -9.369082438e-06 -4.592441935e-07
-5.030128283e-06 -8.41966072e-06 -6.966635015e-06
-4.846995278e-06 -7.793888639e-06 -6.371335817e-06
-3.895034913e-06 -7.259292244e-06 -6.312070534e-06
-0 -0.0002679823713 -0.0003684211966
2.169702424e-06 -0.0001490748442 -0.0001861126279
1.559966493e-06 -0.0001546718175 -3.080397277e-06
-2.400487509e-06 -6.452852213e-06 -0
-1.565799604e-06 -0.0001642260989 1.209101717e-05
4.793300742e-06 -2.616484745e-05 -1.75433389e-05
6.085801429e-06 -3.067120065e-05 -1.280335845e-06
3.307856852e-05 -7.645140171e-05 -3.578635011e-06
3.068492476e-05 -6.495730101e-05 -0
6.02483709e-06 -1.043537959e-05 2.361825272e-06
4.996698545e-06 -8.654581902e-06 -0
-6.518302532e-05 2.372467792e-05 7.151144214e-05
0 -0 2.012507141e-05
-0.0001051310351 2.70500099e-05 9.002577172e-05
0.0001088643779 9.134808445e-05 0.0001578215718
4.410482236e-06 4.410464156e-06 5.893659938e-06
3.657833373e-06 3.657818378e-06 -0
6.905059633e-05 1.426891255e-05 -0
