# .PCD v0.7 - Point Cloud Data file format
VERSION 0.7
FIELDS x y z
SIZE 4 4 4
TYPE F F F
COUNT 1 1 1
WIDTH 124
HEIGHT 1
VIEWPOINT 0 0 0 1 0 0 0
POINTS 124
DATA ascii
-0.006516904174 -0.0009849412454 -1.351611329e-05
-0.002030898817 1.911837613e-05 -0.0009826649297
0.003628077041 -0 0
0.00183286938 0 -0
-0.007208127506 -0.001073419224 -6.982131673e-05
-0.0002767282376 -0 -0
-0.0002969454315 -0 -0.000138008781
-0.0007831282686 -7.425231504e-05 0.0002401474097
-0.001656441982 -2.327305484e-05 0.0007460236808
-0.002007558134 -0.0002560742131 0.0004761481376
0.004268325951 -0 -0
0.001382581159 -0.004567749683 2.821476759e-05
9.388581601e-06 -0.0005941840167 2.473800286e-06
8.196133548e-06 -0.0005822464358 2.742091585e-06
-0.003639132284 -0.0005463574686 -0.0005216163836
-0.002594305851 -0.0003860128037 -0.0003930568699
-0.001360478259 -0.0001786729949 -0.0002784070163
-0.0008356223991 -8.784103024e-05 -0.0002208294122
0.0002745917951 -0.0002577054819 0.001079315615
-0.00414948408 -0.0006358693937 0.0006130292385
-0.001499823043 -0.0002270677463 0.0002355560967
-1.701540061e-06 -0.0003755142263 0.0003470033451
0.0001004311855 0.0002125886966 -0.0002125887116
0.000408733136 0.001133807624 -0.001133807704
0.0007560640626 0.002355896815 -0.001947406565
0.0002510779869 -0 0
0.000175754572 0.0002125886966 -0.0003188830524
0.0003830681553 0.0005935874766 -0.001346210682
-0.0004150923795 -0 -0
-0.0004443080675 -0 0.000206977615
-4.749546528e-08 4.859722045e-05 -0.000135033085
-0.0002312439276 0.0001682010166 -0.0002987589613
-0.0002866956549 8.071826446e-05 -0.000232598393
-4.835214415e-05 0.0003859753223 -0.000395228859
-6.378291396e-06 -3.108859338e-06 -0.0005473835521
-1.774901787e-06 -4.838025199e-05 -0.0001356249096
0.0004110456168 -0.0006208422609 -0.001574503696
0.0003037276248 -3.483214187e-05 -0.001146508222
5.101059773e-06 -8.181475909e-07 -0.0004050500895
0.0008367333002 -6.477004932e-06 -0.003206648111
0.0004398868449 -0 -0.001682995377
0.0005110246923 0.0007312825373 -0.0018752787
3.554504097e-05 9.103571672e-05 -0.0002334492235
0.0002062168928 -0 -0
0.0002771313251 -1.802351818e-05 0.0002562763808
0.000468097277 -0 0.0004251773932
0.001157609646 0.000124317874 0.0008066671171
0.0006038639151 -0 0.002267615248
0.0004909034808 3.718344604e-05 0.001885951026
9.018528532e-06 5.577513211e-06 0.0002828924666
-4.419841863e-06 7.622108068e-07 0.0004538869532
-6.942641967e-06 1.10998997e-06 0.0007548368811
4.46732831e-05 0.0001264064128 0.0003209340675
0.0001506468084 -0.0003188830524 0.0002125886966
0.0007472028892 -0.002136107196 0.001239251944
0 -0.0003132900877 -0.0002946497585
4.545542507e-06 -0.0003251165781 -0.0003031780951
5.870333783e-05 -0.0004585874112 -0.0005142987661
0 -0.0002208993302 -0.000224930361
-1.701087811e-06 -9.874253884e-05 -0.0001757219623
9.19788409e-06 -0.0001432118323 -0.0002337542714
-1.009174567e-06 -4.997863943e-05 -0.0001371553783
3.542043144e-05 -9.216676588e-05 -0.0002337420028
1.413610637e-05 -4.436930842e-05 -0.0001222642621
7.175710208e-08 -3.161554605e-06 8.68859004e-05
1.817049504e-05 -3.809638903e-05 0.000159554338
8.918184919e-06 -7.664628192e-05 0.0002117122764
1.45966568e-07 -4.162884202e-05 0.0001346363218
5.146313845e-06 -0.0002823275621 0.0004906902945
2.362542208e-05 -0.0001956713796 0.000405478004
0.0001982143353 -0.0004195720634 0.0006061610055
0.0003677091223 -0.0006261487417 0.001297530291
0.0006738172995 -0.001263423314 0.002086631731
0.001066996744 -0.003564133423 0.003385146349
2.883102618e-05 -0.0002450759503 0.0002542374916
0.0001206071919 -0.0008637799416 0.0008601444162
0.0002379262852 0.0005403734478 -0.0007968078895
0.0002845656157 0.0007868572479 -0.0008046126907
9.155413397e-06 8.712467644e-05 -0.0001540141727
2.272622835e-07 9.783240457e-05 -0.0001729427008
-0 9.775092565e-05 -0.0001723869205
1.459428985e-05 7.988296151e-05 -0.0001177914537
-0 0.0002208778811 -0.0002261733014
0.001361412182 0.003575769731 -0.000650139901
0.0002510779869 0.0004783245636 0.000265735867
0.000389170894 0.0005846189194 -0.0001062943408
0.001067081458 0.0009035019717 -0
-9.986684324e-05 0.001058032619 -0
-9.766384836e-07 0.0003244608405 -0.0003035273166
-2.246918254e-05 0.0005392946187 -0.0005048410304
-5.765962805e-06 0.001263671958 0.001181552012
0.001143620019 0.002922820312 0.001623789052
0.001242425626 0.003895206879 1.63831628e-05
-9.442442358e-06 0.0005867636047 2.87559946e-06
-9.306128306e-05 0.001602134806 2.97632702e-05
-0.0001476311821 0.0007863837015 0.0008995270043
-0.0005040222102 0.0001878688018 0.0004758387777
9.99799213e-06 0.0002017987495 0.0002964580826
3.745704603e-05 0.0002341146637 0.0005443078488
-2.711002695e-06 0.0001008679741 0.0002671873353
1.917090687e-05 0.0002802869678 -0.0002627468455
-0 0.0003160543265 -0.0002962026366
-0 0.0002208778811 -0.0002261733014
8.732494568e-06 0.0001957082277 -0.0002004002201
5.369380811e-06 0.0001163204586 -0.0001189452311
0.001498517007 -0.004010632892 -0.0008628860889
0.001744992078 -0.0009035019717 -0.0006909132751
0.0004017248059 -0.0003188830524 -0.0004251773932
0.0006586972306 -0.002145842528 -0.00201362364
0.0007818841432 -0.001700711476 -0.002267615248
0.00063203753 -0.001986089884 -0.002000497479
1.376932957e-05 4.263265221e-05 -0.0001191547228
1.660835585e-07 4.748959035e-05 -0.0001327294616
4.692829093e-07 -8.924581694e-07 -0.0005348297974
5.599592315e-06 -8.243179439e-07 -0.0004807222184
0.0001506467978 0.0001062943558 0.0001594415262
0.0001883085052 5.31471704e-05 0.0001594415262
0.0002558112118 0.0005669038521 0.0008503557382
0.0002187155104 0.0002834518861 0.0008503557382
0.000531819736 0.0008427099769 0.002139561868
6.579432361e-05 0.0002324362506 0.0002425603629
0.0005216972256 0.001572330016 0.001640815227
0.0005608660113 0.001706759661 0.001441580684
6.584658104e-05 0.0004035675417 0.0003776737778
