# .PCD v0.7 - Point Cloud Data file format
VERSION 0.7
FIELDS x y z
SIZE 4 4 4
TYPE F F F
COUNT 1 1 1
WIDTH 617
HEIGHT 1
VIEWPOINT 0 0 0 1 0 0 0
POINTS 617
DATA ascii
-0.2099999934 0.1150000021 0.0006897022249
-0.3459999859 0.07500000298 -2.899435601e-16
-0.2099999934 0.1150000021 -0.03500000015
-0.2099678665 0.1150000021 0.001255718293
-0.2259999961 -0.01651839353 0.07315833867
-0.09822627157 -0.1150000021 0.04996852949
-0.1001917943 -0.1150000021 0.04999963194
-0.2259999961 -0.01400986034 0.07367987186
-0.08285394311 -0.1150000021 0.04696821049
-0.08102098107 -0.1150000021 0.04625793919
0.008783758618 -0.07999999821 0.02071462199
-0.05849992111 -0.1150000021 0.02788805217
0.01896507666 -0.07999999821 0.01210685261
-0.05743577704 -0.1150000021 0.02623522468
-0.2041421384 -0.1150000021 -0.04914213717
-0.3459999859 -0.07077553123 -0.02481579967
-0.3459999859 -0.06985021383 -0.02731204405
-0.2099635154 -0.1150000021 -0.03620757163
-0.2098541707 -0.1150000021 -0.03741073236
-0.3459999859 -0.07498818636 -0.001331113395
-0.2099999934 -0.1150000021 -0.03500000015
-0.3459999859 -0.07161168009 0.02228828706
-0.3459999859 -0.07235758752 0.01973269321
-0.2085045427 -0.1150000021 0.004255954642
0.01896507666 -0.07999999821 -0.01210685261
0.01811407693 -0.07999999821 -0.01334654447
-0.05839325115 -0.1150000021 -0.02772865631
-0.3459999859 0.0749527514 0.002661807463
-0.3459999859 0.06829760969 0.03099091351
-0.2071130872 0.1150000021 0.005221241154
-0.2076124996 0.1150000021 0.004952902906
-0.1080205664 -0.1150000021 0.04935251176
-0.3459999859 -0.04419152066 0.06059793383
-0.3459999859 -0.04631434754 0.05899136513
-0.1099542975 -0.1150000021 0.04899910092
-0.3459999859 -0.04201301187 0.06212814897
-0.3459999859 -0.04837881774 0.05731046945
-0.3459999859 -0.01779950224 0.07285723835
-0.3459999859 -0.0203740485 0.07217962295
-0.3339999914 -0.01520252973 0.0734430626
0.005944396369 0.07999999821 0.02170055732
0.007380559109 0.07999999821 0.02125505544
-0.08471340686 0.1150000021 0.04760588333
-0.07921735197 -0.1150000021 0.04547616467
-0.08471340686 -0.1150000021 0.04760588333
0.005944396369 -0.07999999821 0.02170055732
-0.08659650385 -0.1150000021 0.04816997424
-0.3459999859 -0.01520252973 -0.0734430626
-0.1899999976 -0.1150000021 -0.0549999997
-0.3459999859 -0.01258640178 -0.07393634319
-0.07057971507 0.1150000021 -0.04042829201
0.01394437253 0.07999999821 -0.01765798591
0.01273380965 0.07999999821 -0.01854993589
-0.2259999961 0.003841765923 0.07490154356
-0.2259999961 0.006397961173 0.07472661138
-0.3339999914 0.005983958021 0.07476089895
-0.2259999961 0.01651839353 0.07315833867
-0.09822627157 0.1150000021 0.04996852949
-0.1001917943 0.1150000021 0.04999963194
-0.2259999961 0.01148497686 0.0741154179
-0.09626349807 0.1150000021 0.0498601906
-0.09042190015 0.1150000021 0.04907402396
-0.09235829115 0.1150000021 0.04941259325
-0.2258263528 0.001282322919 0.07497384399
-0.08659650385 0.1150000021 0.04816997424
-0.3459999859 0.01908978261 0.07252985984
-0.3459999859 0.0165036153 0.07316167653
-0.3459999859 0.02165189572 0.07180665433
-0.1137726456 0.1150000021 0.04806572571
-0.3459999859 0.05687887967 0.04888550937
-0.3459999859 0.05510806292 0.0508733876
-0.1193333343 0.1150000021 0.04611097649
-0.1211309135 0.1150000021 0.04531538859
-0.3459999859 0.06592715532 0.03575765714
-0.3459999859 0.06322453916 0.04034423828
-0.1175058782 0.1150000021 0.04683528841
-0.3459999859 0.05857802927 0.04683603719
-0.3459999859 0.06020337343 0.04472755268
-0.1156513616 0.1150000021 0.04748720676
-0.2071156204 -0.1150000021 -0.04534675553
-0.3459999859 -0.07301233709 -0.01715223491
-0.3459999859 -0.07357507944 -0.01455016527
-0.2077091187 -0.1150000021 -0.04429446161
-0.3459999859 -0.07404512912 -0.01192976255
-0.3459999859 -0.07489370555 -0.00399166299
-0.3459999859 -0.06655140221 -0.0345819369
-0.3459999859 -0.06773681939 -0.03219819069
-0.2023343742 -0.1150000021 -0.05074366927
-0.2094939649 -0.1150000021 0.002881557913
-0.2092169523 -0.1150000021 0.00337620033
-0.3459999859 -0.07404512912 0.01192976255
-0.3459999859 -0.07357507944 0.01455016527
-0.2088857293 -0.1150000021 0.003836304182
-0.3459999859 -0.07301233709 0.01715223491
-0.1211309135 -0.1150000021 0.04531538859
-0.2071130872 -0.1150000021 0.005221241154
-0.3459999859 -0.06655140221 0.0345819369
-0.3459999859 -0.06773681939 0.03219819069
-0.2080783099 -0.1150000021 0.004629755858
-0.3459999859 -0.07077553123 0.02481579967
-0.3459999859 -0.06985021383 0.02731204405
0.01617353223 -0.07999999821 -0.015641829
-0.06461077183 -0.1150000021 -0.0353214182
0.01509265602 -0.07999999821 -0.01668717153
0.007380559109 0.07999999821 -0.02125505544
-0.08453091234 0.1150000021 -0.04754689708
0.005944396369 0.07999999821 -0.02170055732
-0.3459999859 0.07269641012 -0.01844536886
-0.3459999859 0.07330525666 -0.01585369743
-0.2064596713 0.1150000021 -0.04636129364
-0.2096723914 0.1150000021 -0.03860510141
-0.3459999859 0.0749527514 -0.002661807463
-0.3459999859 0.07481106371 -0.005320261233
-0.3459999859 0.04938835278 -0.05644280836
-0.3459999859 0.05136043578 -0.05465441942
-0.197092101 0.1150000021 -0.05370032415
-0.2057436705 0.1150000021 -0.04733437672
-0.3459999859 0.07199597359 -0.02101380005
-0.09803461283 0.1150000021 -0.04996135831
-0.2259999961 0.01148497686 -0.0741154179
-0.1899999976 0.1150000021 -0.0549999997
-0.2098718435 0.1150000021 0.001814457471
-0.2097132057 0.1150000021 0.00235873647
-0.3459999859 0.07481106371 0.005320261233
-0.3459999859 0.07457511127 0.007972011343
-0.3459999859 0.06935447454 0.02854745463
-0.3459999859 0.07032395154 0.0260680262
-0.3459999859 0.06715469062 0.0333953239
-0.104118906 -0.1150000021 0.04983005673
-0.3459999859 -0.03038359061 0.06856994331
-0.3459999859 -0.0279308483 0.06960508227
-0.3459999859 -0.05038233101 0.05555736274
-0.3339999914 -0.01779950224 0.07285723835
-0.2389999926 -0.01651839353 0.07315833867
-0.3459999859 -0.01520252973 0.0734430626
-0.2389999926 -0.001281086938 0.07498905808
-0.3459999859 -0.001996539067 0.07497341931
-0.3459999859 0.0006655829493 0.0749970451
-0.2389999926 -0.01400986034 0.07367987186
-0.3459999859 -0.01258640178 0.07393634319
-0.2259999961 -0.01148497686 0.0741154179
-0.09626349807 -0.1150000021 0.0498601906
0.02238700166 -0.07999999821 -0.002252153121
-0.05014706776 -0.1150000021 -0.003832126735
-0.05033623055 -0.1150000021 -0.005788770504
0.02248743549 -0.07999999821 -0.0007518369821
-0.05094443634 -0.1150000021 -0.009672204964
0.02188706957 -0.07999999821 -0.00521595357
-0.05136254057 -0.1150000021 -0.01159299258
0.02248743549 -0.07999999821 0.0007518369821
-0.05000009015 -0.1150000021 9.589715046e-05
-0.06916406006 -0.1150000021 0.03935917467
0.01394437253 -0.07999999821 0.01765798591
-0.07073500752 -0.1150000021 0.04054084793
-0.0676407665 -0.1150000021 0.03811666369
0.01811407693 -0.07999999821 0.01334654447
-0.05962821096 -0.1150000021 0.02949777246
-0.06081890315 -0.1150000021 0.03106189892
0.007380559109 -0.07999999821 0.02125505544
-0.2259999961 -0.01148497686 -0.0741154179
-0.09803461283 -0.1150000021 -0.04996135831
-0.3459999859 -0.02292292379 -0.07141105831
-0.1912075728 -0.1150000021 -0.05496351048
-0.3459999859 -0.0203740485 -0.07217962295
-0.3459999859 -0.01779950224 -0.07285723835
-0.08641182631 0.1150000021 -0.04811820388
-0.08626562357 0.1070000008 -0.04807667807
-0.2259999961 0.001281086938 0.07498905808
-0.3339999914 0.00332686631 0.07492617518
-0.3339999914 0.0006655829493 0.0749970451
-0.2259999961 -0.001281086938 0.07498905808
-0.2258263528 0.003881315002 0.07488428801
-0.09430649132 0.1150000021 0.0496747829
-0.2389999926 0.01651839353 0.07315833867
-0.2259999961 0.008946689777 0.0744644627
-0.3339999914 0.01127218362 0.07414808124
-0.3339999914 0.00863351021 0.07450142503
-0.2259999961 0.01400986034 0.07367987186
-0.3339999914 0.01389665436 0.07370130718
-0.3339999914 0.0165036153 0.07316167653
-0.08929861337 -0.1070000008 0.04884137958
-0.08850031346 -0.1150000021 0.04865960404
-0.09042190015 -0.1150000021 0.04907402396
-0.08737741411 -0.1070000008 0.04838047549
-0.2389999926 0.01148497686 0.0741154179
-0.3459999859 0.01389665436 0.07370130718
-0.3459999859 0.01127218362 0.07414808124
-0.3459999859 0.00863351021 0.07450142503
-0.3459999859 0.005983958021 0.07476089895
-0.2389999926 0.006397961173 0.07472661138
-0.1021570191 0.1150000021 0.04995344952
-0.3459999859 0.02669108659 0.0700898394
-0.3459999859 0.02916181274 0.06909839809
-0.3459999859 0.04526006058 0.05980407074
-0.1080205664 0.1150000021 0.04935251176
-0.3459999859 0.04310905561 0.06137270853
-0.3459999859 0.0617528595 0.04256270826
-0.3459999859 0.06461655349 0.03807493672
-0.2032624483 -0.1150000021 -0.04997021332
-0.3459999859 -0.06883688271 -0.02977387421
-0.3459999859 -0.07442187518 -0.00929432828
-0.2090944201 -0.1150000021 -0.04095005989
-0.3459999859 -0.07470485568 -0.00664718356
-0.2094188333 -0.1150000021 -0.03978631273
-0.3459999859 -0.07442187518 0.00929432828
-0.2097132057 -0.1150000021 0.00235873647
-0.3459999859 -0.07470485568 0.00664718356
-0.2098718435 -0.1150000021 0.001814457471
-0.2099678665 -0.1150000021 0.001255718293
-0.3459999859 -0.07489370555 0.00399166299
-0.3459999859 -0.07498818636 0.001331113395
-0.2099999934 -0.1150000021 0.0006897022249
-0.3459999859 -0.0652821362 0.03692211211
-0.1193333343 -0.1150000021 0.04611097649
-0.3459999859 -0.06098772213 0.04365200549
-0.1156513616 -0.1150000021 0.04748720676
-0.3459999859 -0.05940005928 0.0457890071
-0.1175058782 -0.1150000021 0.04683528841
-0.3459999859 -0.06249854341 0.0414600037
-0.07384645939 0.1150000021 -0.04261445999
0.01146637462 0.07999999821 -0.01935903542
-0.3459999859 0.07424519211 -0.01061371714
-0.3459999859 0.07457511127 -0.007972011343
-0.2087003291 0.1150000021 -0.04209209606
-0.2071156204 0.1150000021 -0.04534675553
-0.3459999859 0.07382173091 -0.01324204914
-0.2077091187 0.1150000021 -0.04429446161
-0.2090944201 0.1150000021 -0.04095005989
-0.2099635154 0.1150000021 -0.03620757163
-0.3459999859 0.0473540388 -0.05816007778
-0.3459999859 0.05326780677 -0.05279716477
-0.3459999859 0.06829760969 -0.03099091351
-0.2032624483 0.1150000021 -0.04997021332
-0.3459999859 0.06935447454 -0.02854745463
-0.2023343742 0.1150000021 -0.05074366927
-0.3459999859 0.06715469062 -0.0333953239
-0.3459999859 0.06592715532 -0.03575765714
-0.2013612986 0.1150000021 -0.05145967752
-0.200346753 0.1150000021 -0.05211562663
-0.3459999859 0.06020337343 -0.04472755268
-0.3459999859 0.0617528595 -0.04256270826
-0.3459999859 0.06322453916 -0.04034423828
-0.09607226402 0.1150000021 -0.0498454906
-0.2259999961 0.01400986034 -0.07367987186
-0.3459999859 0.07120481879 0.02355575375
-0.2085045427 0.1150000021 0.004255954642
-0.3459999859 0.07199597359 0.02101380005
-0.3459999859 0.07330525666 0.01585369743
-0.2092169523 0.1150000021 0.00337620033
-0.3459999859 0.07382173091 0.01324204914
-0.3459999859 -0.03978156671 0.06358008087
-0.3459999859 -0.03279804811 0.06744840741
-0.3459999859 -0.03517118096 0.06624189019
-0.1021570191 -0.1150000021 0.04995344952
-0.3459999859 -0.02544291504 0.07055252045
-0.3459999859 -0.02292292379 0.07141105831
-0.3339999914 -0.001996539067 0.07497341931
-0.2259999961 -0.003841765923 0.07490154356
-0.2258263528 -0.003881315002 0.07488428801
-0.2258263528 -0.006463719066 0.0747056976
-0.2259999961 -0.006397961173 0.07472661138
-0.09430649132 -0.1150000021 0.0496747829
-0.3339999914 -0.01258640178 0.07393634319
-0.2259999961 -0.008946689777 0.0744644627
-0.05003496632 -0.1150000021 -0.001869559754
0.02218658105 -0.07999999821 -0.003742410569
-0.05541924015 -0.1150000021 -0.02263969369
0.01973137259 -0.07999999821 -0.01081308909
0.02040954493 -0.07999999821 -0.009471031837
-0.0563436076 -0.1150000021 -0.02437456511
-0.05733545497 -0.1150000021 -0.0260717608
0.02099656314 -0.07999999821 -0.008086674847
-0.05377854779 -0.1150000021 -0.01906770281
-0.05313122272 -0.1150000021 0.01741601899
0.02099656314 -0.07999999821 0.008086674847
-0.05385202914 -0.1150000021 0.01924486272
0.02040954493 -0.07999999821 0.009471031837
-0.07921735197 0.1150000021 0.04547616467
0.008783758618 0.07999999821 0.02071462199
0.01014772803 0.07999999821 0.02008167468
0.01146637462 -0.07999999821 0.01935903542
-0.07401011884 -0.1150000021 0.04271446913
-0.07570920885 -0.1150000021 0.0437030606
-0.07235119492 -0.1150000021 0.04165985435
0.02148980647 0.07999999821 0.006666200701
0.02188706957 0.07999999821 0.00521595357
-0.05190794542 0.1150000021 0.01368043665
0.01394437253 0.07999999821 0.01765798591
-0.07073500752 0.1150000021 0.04054084793
-0.06916406006 0.1150000021 0.03935917467
0.01273380965 0.07999999821 0.01854993589
-0.0676407665 0.1150000021 0.03811666369
0.01509265602 0.07999999821 0.01668717153
-0.07235119492 0.1150000021 0.04165985435
0.01146637462 0.07999999821 0.01935903542
-0.07401011884 0.1150000021 0.04271446913
-0.05733545497 0.1150000021 -0.0260717608
0.01973137259 0.07999999821 -0.01081308909
-0.0563436076 0.1150000021 -0.02437456511
-0.05033623055 0.1150000021 -0.005788770504
0.02218658105 0.07999999821 -0.003742410569
0.02238700166 0.07999999821 -0.002252153121
-0.2259999961 -0.01400986034 -0.07367987186
-0.1924107373 -0.1150000021 -0.05485417694
-0.3459999859 -0.0279308483 -0.06960508227
-0.3459999859 -0.02544291504 -0.07055252045
-0.3459999859 -0.03038359061 -0.06856994331
-0.05951535702 -0.1150000021 -0.02934269421
-0.06324971467 -0.1150000021 -0.03390305117
0.01718217507 -0.07999999821 -0.01452662703
-0.06194546819 -0.1150000021 -0.03243227676
0.01146637462 -0.07999999821 -0.01935903542
0.01273380965 -0.07999999821 -0.01854993589
-0.07384645939 -0.1150000021 -0.04261445999
0.01394437253 -0.07999999821 -0.01765798591
-0.06749479473 -0.1150000021 -0.03799225762
-0.06901330501 -0.1150000021 -0.0392406024
-0.07057971507 -0.1150000021 -0.04042829201
-0.06901330501 0.1150000021 -0.0392406024
-0.06749479473 0.1150000021 -0.03799225762
-0.2258263528 0.006463719066 0.0747056976
-0.2258263528 0.009038419463 0.07443808764
-0.2389999926 0.01400986034 0.07367987186
-0.08929861337 0.1070000008 0.04884137958
-0.08850031346 0.1150000021 0.04865960404
-0.08737741411 0.1070000008 0.04838047549
-0.2389999926 0.001281086938 0.07498905808
-0.3459999859 0.00332686631 0.07492617518
-0.2389999926 0.003841765923 0.07490154356
-0.2389999926 0.008946689777 0.0744644627
-0.3459999859 0.02418672852 0.07099296898
-0.1099542975 0.1150000021 0.04899910092
-0.3459999859 0.05136043578 0.05465441942
-0.3459999859 0.04938835278 0.05644280836
-0.3459999859 0.0473540388 0.05816007778
-0.3459999859 0.04090373218 0.06286402047
-0.3459999859 -0.07235758752 -0.01973269321
-0.2057436705 -0.1150000021 -0.04733437672
-0.3459999859 -0.07161168009 -0.02228828706
-0.2064596713 -0.1150000021 -0.04636129364
-0.2049702108 -0.1150000021 -0.04826245457
-0.2087003291 -0.1150000021 -0.04209209606
-0.2096723914 -0.1150000021 -0.03860510141
-0.2076124996 -0.1150000021 0.004952902906
-0.3459999859 -0.06883688271 0.02977387421
-0.3459999859 -0.06393061578 0.03921576217
-0.3459999859 -0.0577375479 0.04786831513
-0.1118726507 -0.1150000021 0.04856995121
-0.3459999859 -0.05232236534 0.05373425409
-0.0755417496 0.1150000021 -0.04360956326
0.01014772803 0.07999999821 -0.02008167468
-0.07727484405 0.1150000021 -0.0445372574
-0.07219159603 0.1150000021 -0.04155348986
-0.08267390728 0.1150000021 -0.04690209404
0.008783758618 0.07999999821 -0.02071462199
-0.08084367961 0.1150000021 -0.04618479684
-0.07904306799 0.1150000021 -0.04539611191
-0.2082379907 0.1150000021 -0.04320825636
-0.2094188333 0.1150000021 -0.03978631273
-0.2098541707 0.1150000021 -0.03741073236
-0.1959500611 0.1150000021 -0.05409441888
-0.3459999859 0.04526006058 -0.05980407074
-0.3459999859 0.02916181274 -0.06909839809
-0.3459999859 0.02669108659 -0.0700898394
-0.1924107373 0.1150000021 -0.05485417694
-0.3459999859 0.02165189572 -0.07180665433
-0.1912075728 0.1150000021 -0.05496351048
-0.3459999859 0.01908978261 -0.07252985984
-0.3459999859 0.06461655349 -0.03807493672
-0.1992944628 0.1150000021 -0.05270912126
-0.3459999859 0.05857802927 -0.04683603719
-0.3459999859 0.05687887967 -0.04888550937
-0.2049702108 0.1150000021 -0.04826245457
-0.3459999859 0.07120481879 -0.02355575375
-0.2094939649 0.1150000021 0.002881557913
-0.3459999859 0.07424519211 0.01061371714
-0.2080783099 0.1150000021 0.004629755858
-0.3459999859 0.07269641012 0.01844536886
-0.10607443 -0.1150000021 0.04962963983
-0.3459999859 -0.03750000149 0.06495190412
-0.09235829115 -0.1150000021 0.04941259325
-0.2389999926 -0.003841765923 0.07490154356
-0.3459999859 -0.004656145349 0.07485532761
-0.2389999926 -0.006397961173 0.07472661138
-0.3459999859 -0.00730988523 0.074642919
-0.3339999914 -0.004656145349 0.07485532761
-0.3339999914 -0.00730988523 0.074642919
-0.2258263528 -0.009038419463 0.07443808764
-0.05060215667 -0.1150000021 -0.007736466825
-0.05456377938 -0.1150000021 -0.0208698269
-0.05185582489 -0.1150000021 -0.01349586062
-0.05242352188 -0.1150000021 -0.0153778689
0.02148980647 -0.07999999821 -0.006666200701
-0.05306475982 -0.1150000021 -0.01723610796
-0.05004250258 -0.1150000021 0.002061205683
-0.05016213283 -0.1150000021 0.004023328424
0.02238700166 -0.07999999821 0.002252153121
0.02218658105 -0.07999999821 0.003742410569
-0.05035879835 -0.1150000021 0.005979232024
0.01973137259 -0.07999999821 0.01081308909
-0.05643742532 -0.1150000021 0.02454184555
-0.05550640821 -0.1150000021 0.02281053364
-0.05464416742 -0.1150000021 0.02104396187
-0.08102098107 0.1150000021 0.04625793919
-0.07744584978 0.1150000021 0.04462410137
0.01014772803 -0.07999999821 0.02008167468
-0.07744584978 -0.1150000021 0.04462410137
0.01273380965 -0.07999999821 0.01854993589
0.01509265602 -0.07999999821 0.01668717153
-0.06616749614 -0.1150000021 0.03681523725
-0.06474652141 -0.1150000021 0.035456907
0.01617353223 0.07999999821 0.015641829
-0.06474652141 0.1150000021 0.035456907
-0.06616749614 0.1150000021 0.03681523725
0.01509265602 0.07999999821 -0.01668717153
0.01811407693 0.07999999821 -0.01334654447
-0.05839325115 0.1150000021 -0.02772865631
-0.05951535702 0.1150000021 -0.02934269421
-0.06070004031 0.1150000021 -0.03091137484
0.01718217507 0.07999999821 -0.01452662703
-0.05242352188 0.1150000021 -0.0153778689
0.02148980647 0.07999999821 -0.006666200701
-0.05306475982 0.1150000021 -0.01723610796
-0.05094443634 0.1150000021 -0.009672204964
0.02188706957 0.07999999821 -0.00521595357
-0.05136254057 0.1150000021 -0.01159299258
-0.05014706776 0.1150000021 -0.003832126735
0.02248743549 0.07999999821 -0.0007518369821
-0.2389999926 0.01148497686 -0.0741154179
-0.3459999859 0.01389665436 -0.07370130718
-0.3459999859 0.01127218362 -0.07414808124
-0.3339999914 0.01389665436 -0.07370130718
-0.3459999859 0.0165036153 -0.07316167653
-0.2389999926 0.003841765923 -0.07490154356
-0.3459999859 0.005983958021 -0.07476089895
-0.3459999859 0.00332686631 -0.07492617518
-0.2259999961 0.008946689777 -0.0744644627
-0.2259999961 -0.008946689777 -0.0744644627
-0.2258263528 -0.006463719066 -0.0747056976
-0.2259999961 -0.006397961173 -0.07472661138
-0.2389999926 -0.01400986034 -0.07367987186
-0.3339999914 -0.01258640178 -0.07393634319
-0.3459999859 -0.03978156671 -0.06358008087
-0.1947863102 -0.1150000021 -0.05441883579
-0.3459999859 -0.04201301187 -0.06212814897
-0.3459999859 -0.03750000149 -0.06495190412
-0.1959500611 -0.1150000021 -0.05409441888
-0.3459999859 -0.04419152066 -0.06059793383
-0.3459999859 -0.04631434754 -0.05899136513
-0.3459999859 -0.04837881774 -0.05731046945
-0.197092101 -0.1150000021 -0.05370032415
-0.3459999859 -0.05038233101 -0.05555736274
-0.3459999859 -0.05232236534 -0.05373425409
-0.1982082576 -0.1150000021 -0.053237997
-0.3459999859 -0.05419646949 -0.05184344202
-0.3459999859 -0.05600229278 -0.04988730699
-0.06602653116 -0.1150000021 -0.03668519109
-0.06070004031 -0.1150000021 -0.03091137484
-0.07219159603 -0.1150000021 -0.04155348986
-0.0755417496 -0.1150000021 -0.04360956326
0.01014772803 -0.07999999821 -0.02008167468
-0.07727484405 -0.1150000021 -0.0445372574
-0.09023372829 0.1150000021 -0.0490369238
-0.08831374347 0.1150000021 -0.04861513525
-0.0901042223 0.1070000008 -0.0490109548
-0.1118726507 0.1150000021 0.04856995121
-0.3459999859 0.05326780677 0.05279716477
-0.2082379907 -0.1150000021 -0.04320825636
-0.1137726456 -0.1150000021 0.04806572571
-0.3459999859 -0.05600229278 0.04988730699
-0.3459999859 -0.05419646949 0.05184344202
-0.3459999859 0.04310905561 -0.06137270853
-0.1947863102 0.1150000021 -0.05441883579
-0.3459999859 0.04090373218 -0.06286402047
-0.3459999859 0.03864687309 -0.06427612156
-0.3459999859 0.036341317 -0.06560723484
-0.3459999859 0.02418672852 -0.07099296898
-0.1982082576 0.1150000021 -0.053237997
-0.3459999859 0.05510806292 -0.0508733876
-0.2041421384 0.1150000021 -0.04914213717
-0.3459999859 0.07032395154 -0.0260680262
-0.2258263528 0.003881315002 -0.07488428801
-0.09411598742 0.1150000021 -0.04965257645
-0.09216880798 0.1150000021 -0.04938291758
-0.2088857293 0.1150000021 0.003836304182
-0.2258263528 -0.001282322919 0.07497384399
-0.2389999926 -0.008946689777 0.0744644627
-0.3459999859 -0.00995441433 0.07433646172
-0.2389999926 -0.01148497686 0.0741154179
-0.3339999914 -0.00995441433 0.07433646172
-0.05063219368 -0.1150000021 0.007925894111
-0.05098189786 -0.1150000021 0.009860305116
-0.05248286203 -0.1150000021 0.01556025352
0.02148980647 -0.07999999821 0.006666200701
-0.05190794542 -0.1150000021 0.01368043665
0.02188706957 -0.07999999821 0.00521595357
-0.08285394311 0.1150000021 0.04696821049
-0.07570920885 0.1150000021 0.0437030606
-0.05849992111 0.1150000021 0.02788805217
0.01811407693 0.07999999821 0.01334654447
0.01896507666 0.07999999821 0.01210685261
-0.05385202914 0.1150000021 0.01924486272
0.02099656314 0.07999999821 0.008086674847
0.02040954493 0.07999999821 0.009471031837
0.01617353223 -0.07999999821 0.015641829
-0.06338004023 -0.1150000021 0.03404377028
0.01617353223 0.07999999821 -0.015641829
-0.06461077183 0.1150000021 -0.0353214182
-0.06324971467 0.1150000021 -0.03390305117
-0.06602653116 0.1150000021 -0.03668519109
-0.06194546819 0.1150000021 -0.03243227676
-0.05541924015 0.1150000021 -0.02263969369
0.02040954493 0.07999999821 -0.009471031837
-0.05456377938 0.1150000021 -0.0208698269
0.01896507666 0.07999999821 -0.01210685261
0.02099656314 0.07999999821 -0.008086674847
-0.05185582489 0.1150000021 -0.01349586062
-0.05060215667 0.1150000021 -0.007736466825
-0.05003496632 0.1150000021 -0.001869559754
-0.05000009015 0.1150000021 9.589715046e-05
-0.05140736699 0.1150000021 0.01177947409
-0.05098189786 0.1150000021 0.009860305116
-0.05016213283 0.1150000021 0.004023328424
0.02238700166 0.07999999821 0.002252153121
-0.05035879835 0.1150000021 0.005979232024
0.02218658105 0.07999999821 0.003742410569
-0.05063219368 0.1150000021 0.007925894111
-0.3339999914 0.01127218362 -0.07414808124
-0.2259999961 0.006397961173 -0.07472661138
-0.2259999961 0.003841765923 -0.07490154356
-0.2258263528 -0.009038419463 -0.07443808764
-0.09411598742 -0.1150000021 -0.04965257645
-0.09607226402 -0.1150000021 -0.0498454906
-0.3459999859 -0.00995441433 -0.07433646172
-0.3459999859 -0.00730988523 -0.074642919
-0.2389999926 -0.008946689777 -0.0744644627
-0.2389999926 -0.01148497686 -0.0741154179
-0.2389999926 -0.006397961173 -0.07472661138
-0.3459999859 -0.004656145349 -0.07485532761
-0.3339999914 -0.00730988523 -0.074642919
-0.1936050951 -0.1150000021 -0.05467239767
-0.3459999859 -0.03279804811 -0.06744840741
-0.3459999859 -0.03517118096 -0.06624189019
-0.1992944628 -0.1150000021 -0.05270912126
-0.3459999859 -0.0577375479 -0.04786831513
-0.3459999859 -0.05940005928 -0.0457890071
-0.3459999859 -0.06098772213 -0.04365200549
-0.07904306799 -0.1150000021 -0.04539611191
-0.08453091234 -0.1150000021 -0.04754689708
0.007380559109 -0.07999999821 -0.02125505544
-0.08267390728 -0.1150000021 -0.04690209404
0.005944396369 -0.07999999821 -0.02170055732
-0.08641182631 -0.1150000021 -0.04811820388
-0.08626562357 -0.1070000008 -0.04807667807
-0.08831374347 -0.1150000021 -0.04861513525
-0.09023372829 -0.1150000021 -0.0490369238
-0.0901042223 -0.1070000008 -0.0490109548
-0.104118906 0.1150000021 0.04983005673
-0.3459999859 0.03159579635 0.0680198893
-0.3459999859 0.03398996964 0.06685568392
-0.1936050951 0.1150000021 -0.05467239767
-0.3459999859 0.03398996964 -0.06685568392
-0.3459999859 0.03159579635 -0.0680198893
-0.05140736699 -0.1150000021 0.01177947409
-0.05743577704 0.1150000021 0.02623522468
0.01973137259 0.07999999821 0.01081308909
-0.05643742532 0.1150000021 0.02454184555
-0.06081890315 0.1150000021 0.03106189892
0.01718217507 0.07999999821 0.01452662703
-0.05313122272 0.1150000021 0.01741601899
-0.05550640821 0.1150000021 0.02281053364
0.01718217507 -0.07999999821 0.01452662703
-0.06207015365 -0.1150000021 0.03257801011
-0.05377854779 0.1150000021 -0.01906770281
-0.3339999914 -0.004656145349 -0.07485532761
-0.2259999961 -0.003841765923 -0.07490154356
-0.2258263528 -0.003881315002 -0.07488428801
-0.09216880798 -0.1150000021 -0.04938291758
-0.3459999859 -0.001996539067 -0.07497341931
-0.2389999926 -0.003841765923 -0.07490154356
-0.2259999961 0.001281086938 -0.07498905808
-0.3339999914 0.00332686631 -0.07492617518
-0.2389999926 0.008946689777 -0.0744644627
-0.3459999859 0.00863351021 -0.07450142503
-0.3339999914 0.005983958021 -0.07476089895
-0.2389999926 0.006397961173 -0.07472661138
-0.3339999914 0.00863351021 -0.07450142503
-0.2258263528 0.006463719066 -0.0747056976
-0.3339999914 -0.00995441433 -0.07433646172
-0.200346753 -0.1150000021 -0.05211562663
-0.3459999859 -0.06249854341 -0.0414600037
-0.3459999859 -0.06393061578 -0.03921576217
0.008783758618 -0.07999999821 -0.02071462199
-0.08084367961 -0.1150000021 -0.04618479684
-0.08817569166 -0.1070000008 -0.04858174175
-0.10607443 0.1150000021 0.04962963983
-0.3459999859 0.036341317 0.06560723484
-0.3459999859 0.03864687309 0.06427612156
-0.05962821096 0.1150000021 0.02949777246
-0.06207015365 0.1150000021 0.03257801011
-0.05248286203 0.1150000021 0.01556025352
-0.05464416742 0.1150000021 0.02104396187
0.02248743549 0.07999999821 0.0007518369821
-0.05004250258 0.1150000021 0.002061205683
-0.2258263528 -0.001282322919 -0.07497384399
-0.2259999961 -0.001281086938 -0.07498905808
-0.2389999926 -0.001281086938 -0.07498905808
-0.3459999859 0.0006655829493 -0.0749970451
-0.3339999914 -0.001996539067 -0.07497341931
-0.2389999926 0.001281086938 -0.07498905808
-0.3339999914 0.0006655829493 -0.0749970451
-0.2258263528 0.001282322919 -0.07497384399
-0.2258263528 0.009038419463 -0.07443808764
-0.2013612986 -0.1150000021 -0.05145967752
-0.3459999859 -0.0652821362 -0.03692211211
-0.08817569166 0.1070000008 -0.04858174175
-0.06338004023 0.1150000021 0.03404377028
