# .PCD v0.7 - Point Cloud Data file format
VERSION 0.7
FIELDS x y z
SIZE 4 4 4
TYPE F F F
COUNT 1 1 1
WIDTH 80
HEIGHT 1
VIEWPOINT 0 0 0 1 0 0 0
POINTS 80
DATA ascii
-0 -0.01082726618 0
-0.0002858368897 -0.0101176688 9.84127472e-06
-0 0.01012184747 -0
-9.198590934e-06 -4.109525672e-05 -2.691852003e-05
-0.001090435588 -0 -0.003780740392
-5.691044554e-05 0 -5.186941007e-05
-1.83971788e-05 0 -5.383703108e-05
0 -0.004293299032 -0
-0 0.001409349626 0
-1.616052961e-05 -0.0003484594775 1.868684377e-05
-1.787482804e-05 -0.0005033163244 1.030203857e-05
-5.361427213e-05 -0.001822639105 -2.236649254e-06
-2.845522751e-05 -0.0006593717708 -2.593470936e-05
-5.691044554e-05 -0 -5.186941007e-05
-0.0001072285264 -0 -4.473297763e-06
-0 0.003708672584 -0
-6.60418e-06 -0 0.00285855636
-6.60418e-06 -0 0.00285855636
-0 -0.0002398872825 0
-0.000167428624 -0 0.002147485252
-0.000167428624 -0 0.002147485252
-0.001264055672 -0 0.004307893876
0 0.004637749986 -0
-0.0003319778029 0.0005856670887 -0.0003025717446
0 0.002228621968 -0
-1.83971788e-05 0 -5.383703108e-05
-0.0001486956877 0 -0.0005155552502
-0.0001073169423 4.109525672e-05 -0.0003140495409
0.0002127096491 -0.003792948766 -0.0002812932172
-0 -0.00235105953 -0
-7.180184e-06 -0 -0.001449487688
-7.180184e-06 -0 -0.001449487688
0.0003300568499 -0.0003569674765 -7.687337988e-05
0.0001066572067 -0 -6.377663811e-05
0.0001486909897 -0 -0.0005176012852
0.001090401136 -0 -0.003795744656
-3.574965013e-05 -0 2.06040737e-05
-3.232105384e-05 -0 3.737368131e-05
0 -0.0001403024483 0
0.0001497911544 -3.187176366e-05 6.431073142e-06
-0.0003394137638 0.0005862231647 -0.0003481395448
-0.0002385801873 0.0002883291289 -0.0004506273965
0 5.705300159e-05 0
0.001331350802 0.001235675034 -0.002852429521
-0 2.612696672e-05 0
0.0001501623372 0.0001252964508 -0.0003457638845
0.0006221674211 8.425105528e-05 -0.0003720306175
7.249708329e-05 2.242963636e-05 -6.585128253e-05
-0 0.0001224223105 -0
-3.574965013e-05 -0 2.06040737e-05
-0.0001072285264 0 -4.473297763e-06
-0.0001723711418 -0 0.0005874397803
-3.232105384e-05 -0 3.737368131e-05
0.000253190652 -0 0.000268968392
-0 0.0002835571783 -0
-0.0006255001215 0.001263035737 -2.609425298e-05
0 0.001494246179 -0
-0.0001885395965 0.0003090415956 0.0002180132749
0 0.0006343832465 -0
0.00026824292 0 0.000124333352
0 -2.100662417e-05 0
0.000253190652 0 0.000268968392
-0 0.000120650022 -0
0.001510124943 0.0001565807855 7.298760834e-06
0.00197950082 -0 0.000169245824
0.00026824292 -0 0.000124333352
-0.0004660864433 0.0009546054798 -0.0001063566822
-0.0004523822617 0.0008926987914 -0.0002532508239
0 5.70799048e-05 0
0 2.593478446e-05 -0
-0.0001303828549 9.211743212e-05 0.000332117208
-0.0002289319812 0.0003358154217 0.0003394781638
-0.0002085397538 0.0004082125581 0.0001201905037
0 0.0002510993975 -0
0 3.164318437e-05 -0
-0.0002339081767 0.0004141406662 0.0002253705558
-0.000437315005 0.0008555564275 0.0002556345692
-0.0004609258677 0.0009475496115 0.0001165071733
-0.0003468386646 0.0007069494227 4.081700466e-06
0 3.145128349e-05 -0
