# .PCD v0.7 - Point Cloud Data file format
VERSION 0.7
FIELDS x y z
SIZE 4 4 4
TYPE F F F
COUNT 1 1 1
WIDTH 44
HEIGHT 1
VIEWPOINT 0 0 0 1 0 0 0
POINTS 44
DATA ascii
-0.001252760827 2.483764561e-07 -6.120797064e-06
-0.001253012663 5.862382797e-11 -1.750359059e-06
-0.0008353637444 1.717262304e-07 -0.002013899537
-0 0 1.888762397e-05
-0.0004324503131 -0 -0.001044304811
-0 -5.625381251e-06 -3.393799788e-05
-0 -0 -7.687515275e-05
3.801030296e-05 -3.784107387e-05 -0.0001488501451
5.650336165e-05 -5.650342071e-05 1.163886143e-08
5.69708522e-05 -5.674411316e-05 -1.681993953e-07
7.880823704e-10 3.8131923e-11 0.0002054097519
4.289217537e-06 -1.302542693e-05 -2.397432784e-09
1.397547298e-05 -2.899734595e-05 -1.906898584e-09
9.305784602e-06 -1.932826833e-05 -9.328842728e-05
2.859859724e-06 -8.684599133e-06 -4.497976524e-05
-9.593857394e-10 1.84552534e-10 0.000740762351
-2.6592555e-10 3.505388401e-10 0.001665764346
-0 -0 -7.687515275e-05
0.001742295715 1.477267601e-11 0.0001553297001
0.001081054135 -0 9.637841687e-05
-0 5.625832252e-06 -3.767760436e-05
0.0001831586696 -1.077139822e-05 -2.433697744e-07
1.879045083e-05 -9.060246277e-06 -3.068206071e-05
2.818048138e-05 -1.358721688e-05 1.762654462e-08
2.904988573e-05 -1.3987301e-05 2.586499114e-08
4.299265129e-06 -1.303244351e-05 -9.72191912e-10
-0 0 8.06335095e-07
1.398800732e-05 -2.905120848e-05 3.5510134e-09
4.281974926e-06 1.305745692e-05 -3.572996835e-09
2.854076283e-06 8.706633298e-06 -5.092648695e-05
5.650313222e-05 5.650319972e-05 1.155185666e-08
1.0329831e-10 4.973733001e-11 0.0002168271662
2.0090124e-10 2.0090148e-10 0.0008758189994
0.0002143372849 1.06372737e-05 -9.398810639e-08
1.934191151e-05 9.318099581e-06 -3.774315852e-05
2.89974013e-05 1.397547739e-05 -1.94091679e-09
2.905126549e-05 1.398795758e-05 3.539327406e-09
1.398726648e-05 2.904965244e-05 2.584041827e-08
3.566884998e-12 1.081252899e-11 8.063594669e-07
4.298950439e-06 1.303168627e-05 1.222777985e-09
5.674378646e-05 5.697055837e-05 -1.682126832e-07
1.358728507e-05 2.81804622e-05 1.760208035e-08
9.062133211e-06 1.879214074e-05 -0.0001032086007
3.78097464e-05 3.798200248e-05 -0.000175104872
