# .PCD v0.7 - Point Cloud Data file format
VERSION 0.7
FIELDS x y z
SIZE 4 4 4
TYPE F F F
COUNT 1 1 1
WIDTH 52
HEIGHT 1
VIEWPOINT 0 0 0 1 0 0 0
POINTS 52
DATA ascii
-2.37500045e-05 -0 1.72554019e-05
-3.491565897e-05 -0 -4.038881616e-06
-0.000177509366 -0 0.0003293241017
-5.147623997e-05 5.92952049e-05 9.736501032e-05
-1.744636633e-06 -0.0001905427466 1.267553708e-06
1.836830735e-06 -0 -0.0005091737637
-1.819097728e-05 -0 -1.321652029e-05
-8.4997784e-06 -0 -2.615962046e-05
-3.491565897e-05 0 -4.038881616e-06
-2.37500045e-05 -0 1.72554019e-05
-1.586827416e-06 0.0001982714339 1.15289851e-06
-2.332846922e-06 0.0005282193898 -2.698529205e-07
-0 0 1.553173221e-05
-0.0001163240421 -1.393944992e-06 0.0002159625869
-1.524304759e-05 -0.001278656285 5.01783954e-05
-7.896068128e-06 0.002373864136 -5.057729851e-06
3.221584612e-06 -0.0006204716301 2.183918232e-08
1.349305929e-07 -0.001909428642 -3.740307504e-05
6.657244631e-07 -0.0001284097631 -0
-6.243798719e-07 -0.0001625859939 -1.921643095e-06
-1.336279551e-06 -0.0002009573052 -9.708640455e-07
-2.564847417e-06 -0.0003279260074 -2.966896626e-07
-6.657244631e-07 -8.373923146e-05 -0
6.405727562e-06 -0 -1.971478789e-05
1.836830735e-06 -0 -0.0005091737637
9.660991068e-08 0.001900247551 -2.678049256e-05
3.369155121e-07 0.0001233984664 -1.036918569e-06
-8.4997784e-06 0 -2.615962046e-05
-1.819097728e-05 0 -1.321652029e-05
-9.567722581e-07 0.00029188186 -6.951358229e-07
-4.470541659e-07 0.0002050707133 -1.375890848e-06
2.821820387e-05 -0.0001676491788 3.876056755e-05
1.220340525e-06 -0.0002175418336 9.413638866e-07
1.518125723e-05 -0.002257135249 5.800259087e-05
1.661268165e-05 0 1.281493013e-05
0.0001771924409 0 0.0002016904407
1.696218178e-05 -0 -1.292848517e-05
4.385592254e-05 -0 2.973001189e-07
8.921425563e-07 0.0001913557451 -6.799863341e-07
7.874940264e-06 0.001541864426 -3.205555203e-06
0.0001059129473 1.314451983e-05 0.0001218899641
3.336954045e-05 9.670677591e-05 3.999027319e-05
-0 -0 1.333578073e-05
-0 -0 5.52943297e-06
1.696218178e-05 -0 -1.292848517e-05
6.405727562e-06 -0 -1.971478789e-05
1.246014236e-06 -0.0002761383713 -9.497054552e-07
4.705543093e-07 -0.0001554164233 -1.448216195e-06
1.109955945e-06 5.34954897e-05 8.56213836e-07
2.930179665e-06 0.000401176894 1.986374274e-08
4.385592254e-05 -0 2.973001189e-07
1.661268165e-05 -0 1.281493013e-05
