# .PCD v0.7 - Point Cloud Data file format
VERSION 0.7
FIELDS x y z
SIZE 4 4 4
TYPE F F F
COUNT 1 1 1
WIDTH 48
HEIGHT 1
VIEWPOINT 0 0 0 1 0 0 0
POINTS 48
DATA ascii
-0.001519021886 -0 -0
-0.000225970202 0 -0
-0.0009656050778 -3.792303238e-07 1.023921671e-05
-0.001644560921 -0 -0
6.15516211e-05 -0.001177614715 0.007166159692
-1.226579024e-06 -0.0002782264067 0.001718803701
-3.524427228e-07 0.0002029065527 0.0003148319526
-0.0002385240891 -0 -0
4.225597512e-06 -4.267790779e-05 0.00018588293
7.532340776e-05 -0.0005598174347 -0.00111963479
0.0001506468084 -0 -0.001679452225
0.0001255389881 -0 -0.000531471749
0.0002510780117 -0 -0.002799087015
0.0008793112798 0.0004336554417 0.003562173892
-3.766169679e-05 -0 -0
7.532340422e-05 -0.0008397261125 -0.0008397261125
0.0001183444781 -0.0006697499697 -2.016292242e-05
2.844144424e-05 -0.000163577279 -0
0.0001079941002 -0.0004342566736 0.000111304199
2.195912743e-05 -5.31471704e-05 -0
2.17741503e-05 -0.0001163313988 -0
5.021559809e-05 -0.0002799087568 -0.0008397261125
-2.510778487e-05 -0 -0
7.532339004e-05 -0.0005598173557 -0.00111963479
0.0001004311997 -0.0001062943558 -0.0002125886966
7.136383966e-05 -0.0001443951002 -1.332996256e-05
0.000368886056 0 0
-2.510778487e-05 0 -0
5.021560163e-05 0.0002799087568 -0.0008397261125
0.0003994713953 -0 -0
0.0002781908728 0.000108685384 0.0006403288471
7.452052869e-05 0.0001371274319 0.0003147796782
6.711597721e-05 0.0004217306098 0.0005027637365
5.129996111e-05 0.0002869556641 6.045810961e-05
7.532339359e-05 0.0001062943558 -0.0002125886966
7.532340067e-05 0.0005598174347 -0.00111963479
7.53234113e-05 0.0005598173557 -0.00111963479
0.0001255390023 0 0
6.276949229e-05 -0 -0.000265735867
0.0001757546039 -0.0001062943558 -0.0003188830524
0.0001286071235 9.227749132e-05 1.796842841e-06
0.0002082570326 0.0001484368765 -4.480570818e-06
5.021558746e-05 5.31471704e-05 -5.31471854e-05
2.510780613e-05 0.0002799086778 -0.0002799087568
7.618721904e-05 0.0004653450108 -8.133380858e-05
4.596795768e-05 0.0002765652182 0
-5.021560872e-05 0 -0
0.0001004312033 0.00111963479 -0.00111963479
