# .PCD v0.7 - Point Cloud Data file format
VERSION 0.7
FIELDS x y z
SIZE 4 4 4
TYPE F F F
COUNT 1 1 1
WIDTH 80
HEIGHT 1
VIEWPOINT 0 0 0 1 0 0 0
POINTS 80
DATA ascii
-0 -0.01149011814 -0
-0 -0.00189134204 -0
0 -0.007401116576 -0
-0.000820424044 -0 0.004228284148
0 0.008851420808 -0
5.3836464e-05 0 0.001770624504
-0 -0.0008679229253 0
-0.000820424044 -0 0.004228284148
-0 0.004970343884 -0
-0 -0.0001754861241 -0
-0.000536499964 -0 0.000609875904
0 0.002691972462 0
-0 -0.001409349626 -0
-7.180184e-06 -0 -0.001449487688
-7.180184e-06 -0 -0.001449487688
0.000253190652 -0 0.000268968392
5.3836464e-05 -0 0.001770624504
-0 0.0002240832983 -0
0 -0.0004240124538 -0
-0 0.004389722741 0
-0.0004523822617 -7.479280307e-05 -0.0002532508239
-0 -0.0004032562509 -0
-7.315904942e-05 -0 8.316485442e-05
-0.000269999877 -0 -0
-0.000269999877 -0 -0
-0 -5.705300159e-05 -0
-0.000299929344 -0 -0.000566502948
-0.0003394137638 -1.949920363e-05 -0.0003481395448
0 0.00189134204 -0
-0.000134999961 0.0001389556412 -0
0.001090401136 -0 -0.003172150564
0 -2.100662417e-05 0
0.000253190652 0 0.000268968392
0.00026824292 0 0.000124333352
6.377663811e-05 -0 -6.377663811e-05
0.0003720306175 -5.623309107e-05 -0.0003720306175
0.0002501368036 -0.0001108795746 -0.0004960408117
0.00197950082 -0 0.000169245824
0.00026824292 -0 0.000124333352
-0 0.0001885651615 -0
7.249708329e-05 -1.100156717e-05 -6.585128253e-05
0 -8.161043287e-05 -0
0.001510124943 -0.0001565807855 7.298760834e-06
2.144028785e-05 0.0001140407688 -4.251776483e-05
0.0001486909897 -0 -0.0004325657697
4.288056856e-05 -0 -8.503551548e-05
4.288056856e-05 -0 -8.503551548e-05
-0.0004609258677 -5.861541108e-05 0.0001165071733
-0 -8.333358954e-05 0
-0.00157500025 -2.211345098e-06 -0
-0.0003468386646 -3.619686468e-06 4.081700466e-06
-0 -3.166614367e-05 -0
-0.0004660864433 -5.576968001e-05 -0.0001063566822
-0.000299929344 0 -0.000566502948
-0.0001068124386 -0 -0.0001216228372
-0.000783291608 0 -0.000891901252
0 0.0001741429437 0
0 0.0003707916701 -0
-0.0001091871776 0.0001287247955 1.219901593e-06
0.0001501623372 -6.449103812e-05 -0.0003457638845
0 -2.612696672e-05 -0
-0 0.0001757944111 -0
0.0001497911544 3.187176366e-05 6.431073142e-06
9.535619821e-05 0.0001201655948 -2.75931028e-05
0.0002657359934 0.0003345842945 -7.687337988e-05
0.0001044823992 0.0006363404615 -0.0002240632233
-0 2.362269962e-05 0
1.287105171e-05 6.449103812e-05 -2.963689112e-05
-0.000437315005 -7.129809756e-05 0.0002556345692
-0.0001218725689 -1.09235489e-05 0.0001071852372
-0 -1.283172842e-05 0
0 5.839618202e-05 0
-3.877560507e-05 7.479280307e-05 -2.170720376e-05
-2.90925953e-05 1.949920363e-05 -2.984051905e-05
0 1.283172842e-05 -0
-1.044621552e-05 1.09235489e-05 9.187301938e-06
-3.748412651e-05 7.129809756e-05 2.19115247e-05
0 -1.884763208e-06 -0
0.000463827893 -0.0002418077003 -0.0009920206884
0.0008675229091 -0.0004528771157 -0.001860408833
