# .PCD v0.7 - Point Cloud Data file format
VERSION 0.7
FIELDS x y z
SIZE 4 4 4
TYPE F F F
COUNT 1 1 1
WIDTH 52
HEIGHT 1
VIEWPOINT 0 0 0 1 0 0 0
POINTS 52
DATA ascii
-7.793767942e-05 -1.028382763e-06 1.06086822e-06
-0.0003193378633 -0.0003999646422 0.0001730719893
-0.0002276710711 0.0006234292091 0.000100607135
-0.0004325422132 6.816380282e-05 0.0003758672605
-6.440784057e-05 0.001176209172 0.0002768391216
-0.0001364480563 0.0004748759447 -2.399198957e-05
-0.0001628122497 0.0005640835742 6.133351629e-06
-6.289733138e-05 0.001190822755 1.294691571e-05
-4.514890212e-05 3.484318487e-05 -0.0001927984425
-7.235980219e-05 -6.97985099e-05 -0.000430894686
-0.0005643384575 -0.003738462865 0.0002349609889
-0.0001617021911 -0.0001660352396 -0.0009641298379
0.0008405855508 -0 -0
5.099280177e-05 9.541311095e-06 -0.0002063377074
-2.676996552e-05 0.0001637074796 -0.0003280561137
-0.0001627604735 -1.959692326e-05 0.0005954641218
3.35033903e-06 -0.0003490701571 0.0002295575081
-7.941987665e-05 0.000438818949 -0.0001308453506
2.686608668e-07 -0.0001098511309 -0.000629650272
-2.111320658e-07 -7.242224885e-05 -0.0004205315881
-6.497692712e-08 -1.927018046e-05 -0.0001320702738
1.578047967e-06 -1.181642726e-05 -7.845836243e-05
0.0003896026412 -0 -0
-0.0002303811543 -0.002831728561 0.0003355877306
2.608239812e-07 -0.00041971529 0.0002555157142
-4.958726352e-05 -0.0004041686891 0.0002460542739
1.341589922e-06 -0.002939041395 0.000348586868
9.804072071e-07 -0.002940637422 0.0003484945035
-5.698905594e-05 0.000921491742 -0.0002747650671
-2.487678854e-05 0.001072893734 0.0005364469051
-2.768660213e-05 0.0008046703198 0.0002682234147
0.0001506467943 0.0002125886966 0.0001062943558
0.0001255390023 0.0001594415262 5.31471704e-05
-6.717088685e-05 0.0003186370486 0.000562687116
-2.229798701e-05 0.0002682234147 0.0002682234147
-4.477926107e-06 -0 0.0001163285466
5.021559454e-05 5.31471704e-05 5.31471704e-05
7.079012643e-05 8.622486952e-06 9.702295445e-05
3.56249784e-05 -0 5.31471704e-05
-3.691975599e-05 0.0002202641494 -0.0001200896716
-2.087828177e-05 0.0001108831887 -7.752952461e-05
5.021559809e-05 0.0001062943558 -0.0001062943558
6.276949229e-05 0.0001062943408 -5.31471704e-05
-3.811136663e-05 0.0005088495057 -0.0005088495057
-1.816711323e-05 0.0002328338308 -0.0001628120049
-3.411547688e-05 0.0005088370187 -0.0002544185093
-3.361386776e-05 0.0004625400744 -0.0002521797084
0.0001632006956 0.0002125886966 -5.31471704e-05
-6.387630453e-05 0.001272096428 -0
-5.291218534e-05 0.0010176771 -0.0002544192569
0.0003138474969 0.000265735882 0
0.001067081458 0.0009035019717 -0
