# .PCD v0.7 - Point Cloud Data file format
VERSION 0.7
FIELDS x y z
SIZE 4 4 4
TYPE F F F
COUNT 1 1 1
WIDTH 76
HEIGHT 1
VIEWPOINT 0 0 0 1 0 0 0
POINTS 76
DATA ascii
0.007155131263 -0 -0
0.01073297898 0 -0
-0.0002351154072 -3.312526293e-08 -1.732769794e-05
0.001889167416 -0 -0
-4.49132074e-05 0.001846908034 4.195182553e-06
-2.066449606e-05 0.001803151768 6.445644064e-06
0.001167954226 0 -0
0.004120147461 0 0
0.0002094588868 -0 -0
-4.364978391e-06 4.840613136e-05 -0.0001351509092
-3.152486911e-06 3.038336068e-05 -5.460970949e-05
-8.006822522e-06 1.536015448e-06 -4.28858656e-06
0.0001342512053 0 -0
0.0004460008389 0 0
-1.588526422e-05 -1.043912567e-06 -0.0005460666583
-1.571627873e-05 -9.653832122e-07 -0.0005489246975
-0.001180836376 -7.038598964e-06 -7.171936211e-06
-0.0016380276 -8.503845772e-06 -4.491128863e-06
-3.013769408e-06 4.130648101e-05 9.270350483e-05
-0.0009095407692 1.310730503e-06 2.941652462e-06
-4.350840769e-06 4.872705276e-05 -0.0001359005358
4.970034208e-06 -0 0
-1.848899294e-06 2.630439079e-05 -5.477440707e-05
-4.142720115e-06 -4.252336875e-05 0.0001377481424
0.0001208261431 0 -0
-4.882821892e-06 -0.0001299216264 9.475004704e-05
-0.001676424126 -4.122651812e-06 3.006593005e-06
-4.209723216e-06 -4.904607067e-05 -0.0001354941596
2.697706673e-05 0 0
-6.825602847e-06 -0.0002287675119 1.742954772e-06
0.0005346899756 0 -0
-2.976996747e-06 4.146618571e-05 9.330502321e-05
9.822879943e-06 -0 -0
-0.004671281248 -2.696217426e-08 1.441884774e-05
-0.00135624012 1.331546724e-06 4.353504398e-06
-1.330272689e-05 -6.351198238e-07 0.0004548802266
-1.382500629e-05 -8.496884265e-07 0.000454396887
-4.195564397e-06 4.213131598e-05 0.00013797451
-4.224159613e-06 4.196248529e-05 0.0001371967359
-5.741561666e-06 -9.220913574e-05 0.0001800661765
-4.265092979e-06 -4.245310138e-05 0.000136883658
-0.002225359074 -2.925965223e-06 5.713830481e-06
-0.001566536134 -1.347114874e-06 4.343569861e-06
-1.491745431e-06 -5.363121688e-05 5.397995274e-05
-3.885644995e-06 -9.16357783e-05 8.946558982e-05
-7.431963787e-06 -1.051655113e-05 1.3747949e-05
-0.001374687184 -2.907771538e-06 2.838907472e-06
-0.001760815817 -3.107705442e-06 4.062603357e-06
7.698382257e-05 0 -0
-4.989950496e-08 -0.0001180848229 0.0001228314479
-2.610506877e-08 -4.799425478e-05 7.507787648e-05
7.78878326e-06 -0.0001514099146 0.0002635526004
-4.738748892e-06 -0.0001311252977 9.536938539e-05
3.186492047e-05 0 -0
-5.990332452e-06 -0.0001815770937 8.777509595e-05
-6.150031836e-06 -0.0001826149988 8.814924776e-05
-0.002077097754 -7.065030376e-06 1.684915704e-06
-0.002005964207 -5.794709292e-06 2.797137521e-06
-6.583231519e-06 -0.0002258526378 5.403371744e-05
-6.695434117e-06 -0.0002226480137 5.309858767e-05
-4.240513609e-06 -4.886068902e-05 -0.0001347874629
-6.069547938e-06 -9.926246768e-05 -0.0001738164171
-5.840112868e-06 -9.95771386e-05 -0.0001748472077
-0.0002537822626 -1.550439397e-06 -4.27705374e-06
-0.0005000909918 -3.149780399e-06 -5.515514136e-06
-7.005097683e-06 -0.0002243672895 -5.020777052e-05
-6.828719965e-06 -0.000227619474 1.704412344e-06
-0.001581538873 -7.119586156e-06 -1.593184767e-06
-0.001831264885 -7.222783942e-06 5.408413389e-08
0.000381669467 0 0
-8.97172833e-06 -0.0002679909737 -0.0001415338459
-9.632107203e-06 -0.0002218150517 -0.0002260170539
-9.340071338e-06 -0.0002229215097 -0.0002274286248
-8.995840931e-06 -0.0002694163281 -0.0001422707825
-6.684369454e-06 -0.0002256730071 -5.079485744e-05
0.0001010797233 0 0
