# .PCD v0.7 - Point Cloud Data file format
VERSION 0.7
FIELDS x y z
SIZE 4 4 4
TYPE F F F
COUNT 1 1 1
WIDTH 66
HEIGHT 1
VIEWPOINT 0 0 0 1 0 0 0
POINTS 66
DATA ascii
-2.367546391e-06 0.0009439332025 -0.002477278963
-0.001504832062 -1.779864723e-06 -1.653810786e-05
-0 0.0009572090525 -0.002510284701
-0.003058138196 -1.628654658e-05 1.481121972e-05
-0.005700823288 -3.187995951e-05 4.368005105e-05
-0.0006695219184 2.037824854e-05 2.775620799e-05
0.006052042967 -3.162818783e-05 0.0001011832048
0.0007304612433 -3.221372762e-06 1.349167235e-05
4.351921452e-06 -0.0003139539058 4.814882021e-06
1.25643775e-06 -0.0003169416619 2.938253626e-06
0.0001977670722 -0.0002688992102 5.852643882e-06
-7.791808983e-07 -7.309112252e-07 -0.0005918032979
1.205363072e-06 -4.417634854e-07 -0.0003882123552
1.037112249e-06 -5.519739575e-07 -0.001125322532
-0.001848028288 -1.454804037e-05 2.224338089e-05
0.001304062682 -2.185940907e-05 2.273253757e-05
0.001472598008 -3.657292946e-05 2.005966773e-05
-1.481157341e-05 0.0005441039066 7.399016152e-05
-0 0.0005204486288 5.166357413e-05
-2.711002695e-06 0.0001008679741 0.0002671873353
-6.942641967e-06 1.10998997e-06 0.0007548368811
-4.419841863e-06 7.622108068e-07 0.0004538869532
0.000364751221 3.744594657e-06 1.332265548e-05
0.0008904260263 4.648009015e-07 2.357478476e-05
1.708093785e-05 4.493434953e-05 0.0001598690681
9.018528532e-06 5.577513211e-06 0.0002828924666
-0.000432221848 -6.157908739e-06 1.738162999e-05
-0.0001068685437 -1.57998138e-06 5.109987959e-06
7.175710208e-08 -3.161554605e-06 8.68859004e-05
1.817049504e-05 -3.809638903e-05 0.000159554338
-1.701540061e-06 -0.0003755142263 0.0003470033451
-3.028207396e-05 -1.639133531e-06 1.700408371e-06
0.0001697632252 -5.401466998e-06 2.668920529e-06
0.0002675709224 -0.0002744218116 4.019345296e-05
0.0002243422742 -0.0002344819565 0.000115859952
5.83055803e-05 -0.0002335599062 0.0002428889695
-0 -0.0001500215874 0.000260782418
-0 -0.0001299415786 0.0001347991141
0.0001973234739 8.745287667e-06 1.110510978e-05
0.000287714203 6.789457419e-06 1.342231818e-05
-0 0.0001014389976 0.000263974104
5.189307993e-06 9.049461733e-05 0.0002356121827
1.966898864e-05 8.029303971e-05 0.0001587341462
3.440730191e-07 -0.0001479751744 0.0002576284104
5.033680615e-06 -0.0001328411995 0.0002312797886
8.814514571e-06 -3.733301087e-05 0.0001207998016
1.307120622e-07 -4.162884202e-05 0.0001346363218
1.458673289e-07 -4.158618572e-05 0.0001345619565
2.833873706e-05 -0.0001151343717 0.0001194383774
5.964793356e-05 -0.000320215912 0.0002969950326
-0 -0.0003626223418 0.0003359076982
-0 -0.0001299415786 0.0001347991141
1.871776137e-05 0.0001034229522 0.000131330527
9.037555463e-06 7.950558313e-05 0.000119176566
-0 8.973064106e-05 0.0001345036317
1.213692358e-05 -4.887731241e-05 0.0001156615424
1.7158271e-06 -4.368574012e-05 7.615129128e-05
0.000630105092 -4.574540141e-06 1.082502991e-05
0.0004086679093 -4.088648944e-06 7.127174583e-06
-2.341961824e-08 3.024214332e-05 1.308047847e-05
5.077653166e-06 3.566772084e-05 4.220142852e-05
0 8.973064106e-05 0.0001345036317
0 4.025487683e-05 4.762887191e-05
-4.900487793e-08 4.042755521e-05 4.761630795e-05
-5.779496294e-05 2.193971747e-06 3.288700094e-06
-3.977705555e-05 1.306138542e-06 1.834373875e-06
