# .PCD v0.7 - Point Cloud Data file format
VERSION 0.7
FIELDS x y z
SIZE 4 4 4
TYPE F F F
COUNT 1 1 1
WIDTH 72
HEIGHT 1
VIEWPOINT 0 0 0 1 0 0 0
POINTS 72
DATA ascii
-5.535457513e-06 3.660547587e-06 -0.0001023282189
-2.391540371e-06 4.304005914e-07 -7.900628633e-05
-6.411126469e-06 2.680166155e-06 0.0001261902948
3.485676338e-05 1.443810762e-05 -6.188431193e-11
1.185087753e-05 4.908773471e-06 -4.283235599e-11
8.518433387e-06 -2.056531757e-05 6.115816017e-05
-7.424869482e-06 4.370080062e-07 2.31398075e-06
3.251013143e-05 -7.848641125e-05 4.904769085e-05
-1.252900337e-05 1.172473648e-06 -5.682323104e-07
-2.361794754e-05 2.960496412e-06 -6.175553544e-08
-5.663204123e-06 1.367218054e-05 -1.763636043e-05
-0.0001079797251 9.302373677e-06 -1.273227492e-06
-9.2847312e-05 8.046942092e-06 -1.032204796e-06
1.728483457e-06 7.159581752e-07 -6.3698371e-12
5.588272548e-06 -1.29745864e-05 -3.229167015e-05
1.7446164e-05 -4.211875075e-05 -5.433093272e-05
1.371014102e-05 -3.309921635e-05 -6.317163618e-06
2.987787672e-05 -7.21315941e-05 -1.37667009e-05
1.67109022e-05 -4.034370381e-05 2.521154277e-05
1.528153888e-05 -3.944418842e-05 -6.195683066e-07
7.595879147e-07 -2.789657652e-06 5.132045508e-06
-5.402578391e-06 1.158077633e-05 -6.179603298e-06
-3.87340335e-06 9.835157812e-07 -1.029136327e-07
-2.330867548e-05 1.033734217e-06 -4.603638936e-07
4.563653367e-06 -4.971838581e-05 2.222830657e-06
2.337336982e-06 -1.476172007e-05 -2.12910213e-07
4.568979728e-06 -1.103049572e-05 -1.422872226e-05
1.501496409e-05 -3.624933712e-05 -4.67596423e-05
-2.678091995e-06 1.47033046e-06 9.909795607e-07
-3.559622189e-06 5.716709446e-06 6.175923574e-05
1.581904031e-05 6.5524849e-06 6.490492286e-11
5.249434794e-06 2.17439477e-06 2.359417999e-11
-6.448334648e-06 1.556766279e-05 -2.008144121e-05
-5.499082475e-06 1.541172978e-05 -5.196404752e-06
2.384484139e-06 -5.799631092e-06 4.317962116e-06
1.074877085e-06 -2.874945687e-06 3.73712997e-06
4.947943075e-07 -1.194539983e-06 3.552376635e-06
2.082854242e-06 -5.028455032e-06 1.495386812e-05
4.612663686e-07 -2.912003942e-06 -4.230583397e-08
1.23663882e-06 -6.03804911e-06 -4.635231028e-07
4.055767398e-08 -9.791592304e-08 -1.263037615e-07
-1.028582526e-06 2.208043311e-06 2.07583918e-06
-2.473972771e-07 5.972699194e-07 1.776186197e-06
-9.377325107e-07 1.324383424e-06 1.646973929e-06
-2.893413317e-06 6.987877015e-06 4.552498591e-06
-1.112609315e-05 2.686074543e-05 1.678579539e-05
-7.018140073e-06 1.694328357e-05 1.058817213e-05
-2.98970759e-07 1.778251196e-06 5.249501217e-08
-1.03712628e-05 2.503843542e-05 1.564698246e-05
-1.288889496e-06 3.111653605e-06 1.944524312e-06
1.550967057e-05 6.424338094e-06 5.597068119e-11
4.898433756e-05 2.028999595e-05 2.022786798e-11
1.212737244e-05 5.023332056e-06 -3.530439081e-12
0.0001022409981 4.234965155e-05 -1.282979298e-11
-1.711824453e-07 3.861729986e-06 -1.609188866e-06
4.889703706e-06 2.02539929e-06 -1.076440694e-11
-3.943605667e-06 9.520708207e-06 -1.228119324e-05
-1.324951216e-05 3.198716716e-05 -4.126173141e-05
-6.666395061e-07 1.609409857e-06 1.005753467e-06
-2.187551934e-06 5.40487462e-06 3.94389753e-06
-3.765529172e-06 9.090785892e-06 2.703459341e-05
-9.895942481e-07 2.389088595e-06 7.104751817e-06
-1.401620389e-06 3.532168101e-06 2.544182711e-06
-8.98925648e-07 7.787351899e-06 9.936118667e-06
-5.619583308e-07 1.4708724e-06 -1.42348314e-08
-8.16380061e-06 1.988305929e-05 -1.943879478e-07
-6.972556713e-06 1.599971208e-05 -2.905666724e-07
-1.14535366e-05 2.542290077e-05 -1.199642824e-06
-8.054410276e-06 1.946339167e-05 -3.507450401e-07
-6.878417788e-06 1.660596878e-05 -3.169317696e-06
-7.912991598e-06 1.910364967e-05 -3.646010658e-06
-2.678473106e-07 6.466405439e-07 -1.234140061e-07
