# .PCD v0.7 - Point Cloud Data file format
VERSION 0.7
FIELDS x y z
SIZE 4 4 4
TYPE F F F
COUNT 1 1 1
WIDTH 52
HEIGHT 1
VIEWPOINT 0 0 0 1 0 0 0
POINTS 52
DATA ascii
2.540707375e-06 -0.0005344136071 -4.917575645e-06
1.233839997e-05 -0.001611646035 7.408472384e-07
2.368757437e-05 -0.002672896328 4.101784438e-06
-3.929951565e-07 9.020513819e-06 -9.186908561e-05
-1.731607216e-06 7.189972114e-06 0.0001312250514
-3.289296765e-08 -9.703846096e-06 0.0001825079411
8.342994914e-06 0.001735826594 2.904130025e-06
5.779497358e-06 0.001123835998 1.711600523e-06
-7.45915685e-08 -0.0001216756364 1.705496776e-05
2.59914549e-06 -0.0003029272029 8.467802365e-07
-1.29288713e-05 1.897170987e-05 2.459692522e-06
-2.983633363e-05 2.284292139e-05 -8.185286269e-06
-1.475284914e-05 3.141808745e-05 -4.38259856e-06
-3.404937082e-05 5.728536853e-05 3.56428048e-07
-6.252297256e-05 7.278956563e-05 2.560245124e-07
-1.302480153e-05 1.911247306e-05 2.477940353e-06
-3.238574479e-05 0.0001081709168 -4.237632597e-06
-1.149007453e-05 0.0001463676413 -2.96621459e-07
-5.979067688e-05 0.0001613922736 5.376410989e-07
-1.048769623e-07 9.596492914e-06 -0.0001210556497
-2.987792674e-08 6.284537431e-06 -8.892063382e-05
-5.100472706e-05 4.995537302e-05 -3.502139698e-07
-3.078260677e-05 2.531552302e-05 -3.205348601e-07
-1.337817451e-06 1.12256162e-06 -1.978924805e-07
-5.273984087e-05 0.0001043552929 1.196207323e-06
-6.331621834e-05 0.0001470910527 1.431854977e-06
-3.692534252e-05 5.418392007e-05 7.024968274e-06
-2.163490101e-05 3.174686337e-05 4.11599498e-06
1.305528227e-05 0.0002616818903 -1.136940935e-06
7.912036385e-07 6.63898754e-07 -9.70550857e-07
0.000117732448 6.22023735e-05 -4.790914603e-07
6.665264649e-06 1.752149491e-05 -2.326296028e-07
7.525930962e-05 0.0001792329783 -9.404170454e-07
-1.218347993e-05 1.896020723e-05 -4.604781301e-06
-7.065425785e-06 5.840610333e-06 -2.015259325e-06
-3.182622278e-07 5.512469845e-07 -5.981388931e-07
-1.749708931e-05 3.126218227e-05 -6.620806212e-06
-1.808392283e-05 3.132225806e-05 -6.945428573e-06
-7.911529167e-07 1.370316389e-06 -1.486877239e-06
-9.538231472e-07 1.652071528e-06 -1.792610858e-06
3.851899013e-07 2.184522127e-06 -2.084453577e-06
2.299760864e-05 9.864802818e-05 -3.880682678e-06
7.956896597e-05 5.230783896e-05 -0
0.0001046844628 0.0002176563807 -0
2.729971882e-06 3.489967436e-05 -4.494304262e-07
2.086612823e-07 1.183377926e-06 -1.129166078e-06
3.119409308e-05 3.480976127e-05 1.584274206e-06
4.5516017e-08 -7.937790104e-08 2.760910216e-06
4.251742251e-05 7.298974863e-05 2.215733145e-06
1.738052311e-05 9.153767393e-05 -3.809926419e-06
1.591425028e-05 8.201920509e-05 -3.319762006e-06
1.364653991e-06 8.968641004e-06 -2.800939725e-07
