# .PCD v0.7 - Point Cloud Data file format
VERSION 0.7
FIELDS x y z
SIZE 4 4 4
TYPE F F F
COUNT 1 1 1
WIDTH 56
HEIGHT 1
VIEWPOINT 0 0 0 1 0 0 0
POINTS 56
DATA ascii
0.004625042614 -0 -0
-0.0001174920354 -0.0002854342918 1.237442138e-06
7.681603186e-07 -0.001619269212 -1.753293131e-06
-0.005174204356 7.934955469e-05 -1.709344072e-05
-9.467899763e-06 0.0002218035903 -0.0002273086506
-6.20040683e-05 7.03823527e-06 -7.212920944e-06
4.513353557e-05 -0.001860369085 -6.650176187e-06
0.001197527676 -0 0
0.0009037033201 -0 0
0.0005315477547 -0 -0
-0.000349293088 5.734837758e-06 -1.428062226e-06
-5.521214438e-06 0.0001807282018 -4.500408366e-05
-3.744830147e-06 1.696276744e-06 -2.6754766e-06
-2.100269957e-06 1.641383343e-05 -3.850019488e-05
-9.159246629e-06 0.0002231249678 -0.0002283682906
0.0001617383679 -0 0
8.146860484e-05 -0 -0
-9.102546989e-06 0.0003185143872 2.153759012e-06
-5.478870041e-06 0.0001826399738 -4.538016596e-05
4.11940754e-05 -0 -0
-5.728806439e-06 0.0001326414799 0.0001386620637
-0.0001792303212 4.134504631e-06 -1.779801653e-06
-0.0001270649344 4.389822798e-06 -2.741616604e-06
-4.360057884e-06 0.0001302951572 -5.608883213e-05
-1.2256561e-06 1.940714556e-05 -3.595279592e-05
1.604335082e-06 -0 0
-2.964115464e-06 5.391929165e-05 -8.482238142e-05
-3.00891459e-06 5.345662051e-05 -8.431521436e-05
-3.802585798e-08 1.699826365e-05 3.219562118e-05
1.918709147e-05 -0 0
-4.228144629e-06 0.0001314294791 -5.682019328e-05
-5.042892727e-06 0.0001383412773 -8.63995565e-05
-4.800837199e-06 0.0001370438217 -8.585357701e-05
-5.356081178e-08 7.974072805e-05 0.0001197867428
3.518795974e-06 -0 -0
-1.346532924e-08 1.692352593e-05 3.184487478e-05
-5.711737518e-06 0.0001319352557 0.0001379417051
-4.450279555e-05 8.31135012e-06 8.689730436e-06
-1.917466843e-06 2.318177289e-06 4.230968923e-06
-7.441072877e-06 6.586855881e-06 1.266459409e-05
-9.287597153e-06 3.6199744e-06 5.083266126e-06
-3.016268557e-06 5.746385859e-05 8.069230707e-05
-2.118438936e-06 4.200457254e-05 5.928214904e-05
-9.320752077e-05 8.198480574e-06 6.012396489e-06
-0.0002188809578 1.153220112e-05 5.588999832e-06
-0.0003288793023 1.12460085e-05 2.970438093e-06
-0.0009048402308 2.003680863e-05 1.571017812e-07
-9.687502493e-06 0.000318066431 2.493850382e-06
0.0001017208257 -0 -0
-5.382046921e-06 0.0001814451855 4.788744882e-05
-5.332542432e-06 0.0001785203349 4.715305018e-05
-6.2847625e-06 0.000183063387 8.87203777e-05
-5.963937813e-06 0.0001823610913 8.808726938e-05
3.321119253e-05 -0 -0
-4.821841032e-06 0.0001324540867 9.717114605e-05
-4.762169523e-06 0.0001301435525 9.544142126e-05
