# .PCD v0.7 - Point Cloud Data file format
VERSION 0.7
FIELDS x y z
SIZE 4 4 4
TYPE F F F
COUNT 1 1 1
WIDTH 46
HEIGHT 1
VIEWPOINT 0 0 0 1 0 0 0
POINTS 46
DATA ascii
-6.868050852e-05 -0.002633067485 -0.0002945306824
-0 -0.002204675079 -0.0002774291097
2.860431435e-06 -0.006276833512 -0.0007930357633
9.976887221e-06 -0.0002848993599 -3.070567137e-05
2.641856405e-05 -0.0002812350604 -2.01360637e-05
-8.289595e-05 0.0001721641 -5.458273598e-11
-2.547795e-05 0.00836760765 -2.012302307e-09
0.0005329187094 -0.004263349664 -0.0002130561016
9.37501875e-06 -7.5000149e-05 -0
9.374989625e-06 -7.4999924e-05 -7.499999894e-11
-1.854491658e-05 3.851537829e-05 -5.071752877e-05
-2.523042899e-11 1.265018399e-11 0.0003029878606
-2.547754796e-05 0.008367607931 -6.638036267e-10
-4.585958998e-12 1.506169547e-09 0.003132267077
1.034177899e-11 3.026686658e-10 0.0007226303711
3.341965177e-05 -0.0001007595665 -2.547224882e-05
0.0005475350093 -0.001750330703 -0.000292347186
6.523324478e-05 3.939594685e-05 -1.750299099e-11
8.263627736e-06 -2.541737458e-07 -2.541739999e-13
0.0004784177169 2.668670102e-05 6.842637247e-06
1.262082587e-05 -4.716954356e-06 -3.884286984e-05
-5.093058597e-11 -4.103952358e-10 0.0002592002965
-7.275761621e-06 -6.880611397e-05 0
-0.0003637898782 -0.003440322894 -2.910319208e-11
-0 -3.562507025e-05 -0
-0 -3.562482088e-05 0
-7.490702179e-05 7.490700275e-05 -0.0001760971713
-3.135757733e-05 1.57222229e-05 -7.750348879e-05
-0.0001401690444 7.027879719e-05 -1.124460799e-11
-0.0001401686416 7.027859578e-05 -1.121349199e-11
-5.592832702e-05 -9.1229991e-11 -0.0001520500762
-8.698431741e-07 -6.826835399e-06 -2.677099705e-06
-8.4997801e-06 -1.5695757e-11 -2.61596107e-05
-6.56595647e-06 0.00215643484 -0.0009571996465
-9.598445777e-06 2.645380986e-05 -2.954099953e-05
-8.4997651e-06 -1.699952e-12 -2.61596057e-05
-8.28958e-05 0.0001721637 -5.164910997e-11
-1.492124399e-11 3.098946598e-11 0.000217469666
-6.027037197e-11 6.027033597e-11 0.0007574315466
-0.00033483505 0.0003348352 -1.004505599e-10
-0.0003348353866 0.0003348351866 -5.357363197e-11
1.633212003e-05 9.863365446e-06 -5.889095584e-05
6.259126504e-05 -0 -0.0002110450594
2.261564008e-06 0.001259575544 -0.000626881731
1.836836102e-06 3.673669984e-13 -0.0005091739055
1.836835735e-06 -0 -0.0005091737987
