# .PCD v0.7 - Point Cloud Data file format
VERSION 0.7
FIELDS x y z
SIZE 4 4 4
TYPE F F F
COUNT 1 1 1
WIDTH 52
HEIGHT 1
VIEWPOINT 0 0 0 1 0 0 0
POINTS 52
DATA ascii
-1.999999879e-10 -0.008290378132 -8.290378516e-10
-2.691910798e-11 -0.002136534908 -0.001020687031
-2.547805306e-05 -0.008367608093 8.44875487e-05
-1.046467309e-05 -2.907966451e-05 -3.220694274e-05
-1.459341326e-05 -8.813249261e-06 -2.744656516e-05
-8.4997784e-06 0 -2.615962046e-05
2.261452563e-06 -0.001259577512 -0.0006268799247
1.836830735e-06 -0 -0.0005091737637
-5.177761042e-05 -3.126951719e-05 -5.282763414e-06
-0.0004177382083 0.0005670045343 -0.0001158536429
-3.584058765e-05 3.631228816e-05 -2.603971444e-05
-5.592839737e-05 0 -9.053866122e-05
-8.4997784e-06 0 -2.615962046e-05
0.0005181174231 0.001750331736 -0.0001585464544
6.523290261e-05 -3.939560158e-05 1.954428403e-11
1.633205849e-05 -9.863293576e-06 -5.889064569e-05
-2.197855492e-11 2.249861836e-10 0.0006486604384
5.337504337e-06 3.542620843e-05 -0
0.000290918259 -2.668704949e-05 3.8881122e-06
4.513706514e-06 2.541892542e-07 -0
1.836830735e-06 -0 -0.0005091737637
6.259136504e-05 -0 -0.0002110451544
-0.0001078630107 -8.139471459e-05 -9.017817845e-06
-0.0001106511086 0.0002621071467 -1.575125821e-05
-5.398827004e-11 7.77057505e-10 0.001972194979
-6.863570012e-06 0.0003801590077 -2.112389031e-05
-1.468921191e-05 0.0002987827467 -1.067233851e-05
-9.374999995e-12 1.387499949e-10 0.0003339843656
1.262081691e-05 4.716887321e-06 -3.884285209e-05
3.341955906e-05 0.0001007593305 -2.547221102e-05
-6.104617915e-06 -1.845458785e-05 -5.15710176e-10
-6.381438453e-05 -0.0001323067764 -8.094894072e-07
-3.727244405e-05 9.900966055e-05 -4.311503592e-06
-0.00047404078 0.003128669128 0.0001425003172
-4.037492925e-06 4.18474563e-05 -0
-2.819439032e-05 0.0003322636633 -3.261396408e-06
-2.802377738e-05 -2.114589611e-05 -9.291146472e-08
-3.765193223e-05 -1.207473641e-05 4.127731532e-06
-1.65798777e-05 -3.437513772e-05 1.506793702e-08
-1.7095501e-05 -3.550513391e-05 2.523610948e-08
-2.555622301e-11 -8.195719004e-12 0.0006210174717
-1.160540501e-11 -2.410291801e-11 0.0002757011065
3.541365206e-05 0.0003436697459 2.400698095e-07
4.681616982e-05 0.0003141688207 3.173676905e-07
0.0004600640961 0.003680512763 6.763461029e-05
5.172624219e-06 0.0002848994636 -1.591968879e-05
1.36969597e-05 0.0002812347019 -1.043975019e-05
4.037496962e-06 3.957378643e-05 0
-0 0.002204675471 -0.0001438359691
1.483240592e-06 0.006276834269 -0.0004111577515
-0 3.562496338e-05 -0
-0 3.562492775e-05 -0
