# .PCD v0.7 - Point Cloud Data file format
VERSION 0.7
FIELDS x y z
SIZE 4 4 4
TYPE F F F
COUNT 1 1 1
WIDTH 46
HEIGHT 1
VIEWPOINT 0 0 0 1 0 0 0
POINTS 46
DATA ascii
-0.0001721644069 -8.289605332e-05 1.390059798e-11
6.400421102e-11 -3.3356318e-10 -0.001653096559
-0.006194840228 4.999998201e-10 -7.433808425e-10
-0.006194840798 -4.999985197e-11 6.194840527e-10
-0.000334835446 -0.0003348351972 -3.926782823e-06
-0.0002670355553 -0.0002377158548 7.131475503e-11
-0.0001721635534 -8.289580166e-05 2.486874001e-11
-1.721635499e-11 -8.289579996e-12 0.0006079416499
-2.670355499e-11 -2.377158499e-11 0.0009363040032
0.0002300879655 -0.006603855475 3.009113093e-06
-8.217287999e-11 2.1551412e-10 0.0008900504092
0.003766875365 -3.2673593e-09 -0.01321990753
9.999949995e-13 0.0001724998245 1.724999969e-10
2.5469584e-11 -4.0568276e-11 -0.0002094785852
0.006718580647 0.0005827837243 -0.02489699991
0.001378125015 0.0002756242983 -0.005023147912
-0.0001369547918 0.0003591901784 2.566008578e-06
-4.548139727e-05 7.244334565e-05 -1.111167006e-12
-4.244324998e-12 -5.846044997e-12 0.0001497673759
3.241736743e-05 -0.001774663095 0.000475420891
-4.244324915e-05 -5.846044883e-05 -6.336173704e-08
-2.023719324e-05 -6.168374732e-05 4.998669924e-09
-5.257351793e-06 -1.602514912e-05 1.214283883e-06
0.001378125119 -0.0002756260149 -0.004645620219
5.818361818e-06 -0.0001663414453 -0
2.812505525e-05 5.62501125e-06 5.624999997e-12
2.812497087e-05 5.624994375e-06 5.624999978e-12
-3.692618058e-10 4.340536199e-09 0.01890329978
-1.124999889e-10 1.18499998e-09 0.004851562238
-5.492449772e-10 5.422771743e-09 0.02275906501
-0 0.008452500198 -0.000315582707
0 0.0001724991345 0
-1.829455853e-06 5.734902325e-06 -0
-2.022270685e-05 -6.130365336e-05 5.3808906e-10
-6.580032672e-05 -0.0001366589198 -2.519244294e-08
-3.315834e-12 -6.886566001e-12 -1.195608485e-05
-1.468049998e-12 -6.824144999e-12 -2.106358566e-05
-1.528605e-12 -4.633854e-12 -1.221182327e-05
-6.381392069e-05 -0.0001323057089 -1.501793276e-08
-2.177866171e-05 -3.364175051e-05 4.451287728e-09
-1.657998623e-05 -3.437530318e-05 4.624807771e-07
1.650000077e-10 8.999999999e-11 0.0004324218694
2.812502712e-05 -5.625005625e-06 -0
2.812497187e-05 -5.624994375e-06 -5.624999997e-12
7.687515275e-05 -0 -0
7.687492212e-05 -0 -0
