# .PCD v0.7 - Point Cloud Data file format
VERSION 0.7
FIELDS x y z
SIZE 4 4 4
TYPE F F F
COUNT 1 1 1
WIDTH 96
HEIGHT 1
VIEWPOINT 0 0 0 1 0 0 0
POINTS 96
DATA ascii
-1.068658965e-05 -1.896347964e-07 -6.882298754e-06
-1.131621346e-05 -4.84877223e-06 7.099913914e-06
-4.319642682e-06 5.570199666e-08 -4.319632359e-06
-4.182734579e-05 2.169585223e-06 -7.762301222e-05
-9.287663243e-06 3.919494888e-07 -1.741652981e-05
-9.398050427e-06 -4.751195876e-06 -2.453454479e-05
-3.931552245e-05 1.083338045e-06 6.091429971e-06
-5.746263568e-06 -4.190783387e-07 1.231666607e-06
-3.577365555e-05 6.476137747e-06 9.568532192e-06
-9.073648635e-06 -7.599565753e-06 6.532125962e-06
-1.412697239e-05 -3.957340446e-06 4.141687255e-06
-9.525851275e-06 -4.076239806e-06 3.992424525e-06
-2.077857711e-06 -3.499226085e-07 -5.978723691e-07
-1.793534065e-05 -1.712697441e-05 1.285757343e-05
-1.455928006e-05 -3.150852698e-05 1.541281505e-05
-5.479076155e-07 -5.672801514e-06 9.123212294e-07
-7.976372039e-07 -2.738677685e-05 -2.282080141e-05
-7.044402742e-07 -3.050386805e-06 -3.802728839e-06
1.44199216e-07 -1.030757561e-05 7.784201691e-07
-4.64421676e-07 4.02099672e-06 -4.644205661e-07
-7.064435949e-06 3.280129055e-05 -2.122338929e-05
3.10929012e-05 -0 -3.109289073e-05
4.242290473e-05 -4.599511996e-12 -4.242290634e-05
-9.929859484e-07 1.279948931e-06 -2.323604506e-06
-8.543380347e-06 3.965771965e-06 -1.826583799e-05
-1.194268502e-06 8.072091541e-08 -4.305386352e-06
-2.293023138e-06 -2.060331782e-07 -1.175134398e-05
1.430009133e-05 -2.606624999e-12 -1.430011196e-05
3.673196557e-07 2.606624999e-12 -3.673223759e-07
2.537861804e-05 -0 -2.537863897e-05
-7.792819864e-06 1.183904159e-05 2.376921416e-06
-2.682465518e-06 7.751828941e-06 2.378555571e-06
-5.005973645e-06 -5.051734022e-07 3.310110766e-06
-2.673339414e-05 -3.409359047e-06 1.690489252e-05
-3.083746472e-06 -2.720624425e-07 1.802918174e-06
-3.369371317e-06 -2.999621713e-07 1.972282738e-06
1.751092026e-06 -1.113214927e-05 -9.84086636e-07
2.5755011e-06 -3.234657669e-05 -3.25280195e-06
3.329520366e-06 -6.371549785e-05 3.418075637e-06
3.186659952e-06 -1.790017617e-05 3.196285473e-06
3.969819823e-06 -0 -3.969819823e-06
1.282742231e-06 5.289218639e-05 1.567442959e-06
1.957162816e-07 1.14485838e-06 8.860195934e-07
1.806472594e-06 8.312295652e-06 1.942640915e-06
1.569256355e-06 2.23273382e-06 5.561567725e-06
-7.077099991e-06 6.87279681e-09 5.745777477e-06
-4.44243134e-06 1.17338936e-05 1.404611211e-05
-1.394563146e-06 7.411102112e-06 9.160435934e-06
4.756768655e-07 -4.153059001e-06 4.562221674e-06
2.195468815e-06 -2.550611654e-06 6.23594566e-06
1.234071375e-06 -1.253216685e-05 7.257000937e-06
2.489875148e-06 2.188691103e-06 7.558816844e-06
1.270700283e-06 -7.331649739e-07 3.771856967e-06
1.912949654e-06 3.384466867e-08 7.207728698e-06
1.628434658e-06 1.744487945e-08 -1.073717602e-07
1.239972286e-06 1.744487945e-08 -3.990279341e-08
5.224742118e-07 4.988130706e-07 8.818321543e-07
-3.260381154e-06 5.734072534e-05 -8.401432737e-07
-3.096986635e-07 2.51703857e-06 1.07947952e-07
-8.849529802e-07 1.780570024e-06 2.261936256e-07
-8.101659943e-06 7.663275642e-05 -5.37577344e-06
7.749025295e-06 -2.671459102e-05 9.292081562e-06
1.046131056e-06 -4.01806456e-06 1.227642502e-06
5.533294446e-06 -1.965985767e-05 9.914510114e-06
9.827168989e-07 -3.601825377e-06 1.82414594e-06
9.643451934e-06 1.971262553e-05 1.058933146e-05
5.401568515e-06 5.892072293e-06 6.174706945e-06
1.575045219e-05 3.69077522e-05 1.597642846e-05
1.222289695e-05 -9.050479203e-06 1.443184886e-05
3.875013134e-07 -2.990910667e-07 3.875008333e-07
1.068471472e-06 -8.24694735e-07 1.06847017e-06
7.046947197e-06 -5.86153089e-07 7.854954797e-06
1.555022789e-05 6.141115787e-06 1.832145031e-05
2.709721579e-05 8.226993441e-07 2.949798093e-05
2.897433391e-06 8.423736329e-08 2.897429801e-06
2.897433391e-06 8.423736329e-08 2.897429801e-06
4.428899191e-06 2.219480096e-06 5.195971527e-06
9.284456635e-06 7.620738473e-06 1.046233569e-05
3.875013134e-07 2.990910667e-07 3.875008333e-07
5.076395336e-07 -2.685727324e-07 -4.979117548e-08
1.220794813e-05 -5.515499996e-14 -1.220795533e-05
5.735149051e-06 5.515499997e-14 -5.73514185e-06
3.72611972e-06 5.217800003e-14 -3.726115171e-06
1.588705605e-06 -3.899561185e-06 1.658575369e-06
1.415284678e-06 -3.282184112e-06 1.415280022e-06
5.041056735e-07 -1.169070536e-06 5.041039351e-07
7.86517299e-06 -1.34240266e-05 9.635250095e-06
1.206182181e-06 -9.309860826e-07 1.206180687e-06
1.076611309e-05 -9.002422391e-06 1.256088386e-05
5.158496942e-06 -1.217067192e-05 5.337529759e-06
1.049603234e-06 -2.43413417e-06 1.049601934e-06
4.88180203e-07 2.695679926e-07 -5.963234318e-08
1.097044697e-06 8.467487193e-07 1.097043338e-06
9.367325262e-07 7.230124923e-07 9.367313229e-07
1.497605894e-06 3.473110454e-06 1.497604039e-06
2.42809169e-07 5.631027207e-07 2.428104125e-07
