# .PCD v0.7 - Point Cloud Data file format
VERSION 0.7
FIELDS x y z
SIZE 4 4 4
TYPE F F F
COUNT 1 1 1
WIDTH 70
HEIGHT 1
VIEWPOINT 0 0 0 1 0 0 0
POINTS 70
DATA ascii
-1.592930079e-05 -1.393997679e-05 -1.729229802e-05
-3.831898134e-05 2.243050145e-06 -3.376238394e-05
-8.635868545e-06 -3.278013847e-06 -8.635866406e-06
-3.593666379e-06 -2.651245547e-06 -3.824724951e-06
-8.510978861e-06 2.779999609e-06 -8.505558138e-06
0.0001224735248 1.349170882e-06 2.749822201e-06
2.668397446e-06 -0.0001566452031 -3.258720659e-06
2.199509087e-06 -8.074370191e-08 -5.398065862e-07
-5.976655605e-07 8.074380194e-08 -1.062038997e-06
-1.127904866e-06 -1.082414672e-05 7.01876873e-05
-4.724401385e-06 -6.701517883e-08 2.209780863e-06
-2.308461864e-07 -1.941552333e-06 2.965175776e-08
-2.51534362e-05 -7.726332926e-07 4.952447128e-07
-1.046688147e-05 7.893213408e-07 9.4165039e-06
-1.261340874e-05 1.656841325e-06 -1.141827475e-05
-8.339525063e-06 1.603191948e-06 -7.211014195e-06
-2.262551958e-05 5.567716727e-06 -2.174514387e-05
-2.193096228e-05 -1.243975785e-07 -2.01929795e-07
-3.526072432e-06 1.281764973e-07 -9.509202618e-07
-3.168286626e-06 4.32903607e-07 -1.285361211e-06
-1.406784609e-05 2.188543015e-06 2.124702047e-07
-2.668587293e-06 9.222847073e-06 -5.819951221e-06
-6.405054067e-06 2.681360218e-05 -1.559014015e-05
1.461126631e-06 1.968627483e-07 -3.125182308e-07
8.003145265e-06 1.60192729e-07 -1.8916007e-07
1.03847156e-05 3.155627989e-07 1.678563332e-07
5.15840323e-05 7.829105144e-07 9.784355567e-07
-2.908494113e-07 8.007757885e-06 -2.874320212e-07
-7.15326768e-06 1.610542163e-06 2.201544004e-06
-1.518260637e-05 3.00411e-06 9.716560791e-07
-4.472556424e-07 2.167552664e-05 -5.582382052e-06
-6.82175085e-07 1.897280656e-05 -6.785073525e-07
-1.702328618e-06 9.197667956e-07 -1.845024167e-06
-1.4685277e-05 4.810867291e-06 -1.468528455e-05
-7.934265355e-07 2.401233482e-07 -8.737382471e-07
-7.814863885e-06 1.948745523e-06 -7.814867905e-06
8.986085502e-06 1.354749119e-05 6.742728291e-07
8.435428904e-08 -3.896985512e-06 1.302825803e-05
1.544854839e-06 -3.129467288e-06 1.052853617e-06
9.154717949e-08 -1.132174369e-05 -4.313026166e-08
1.157984119e-07 -4.457522063e-05 1.911335508e-07
7.661290645e-06 -1.21881038e-05 1.263861616e-06
1.255880962e-05 -1.767087562e-05 1.600325201e-06
6.869223957e-06 -1.265448071e-05 9.132356382e-07
-9.380652374e-06 2.339189615e-06 -9.380654294e-06
-6.907023101e-06 1.523684355e-06 -6.90702139e-06
-7.989277331e-06 1.774299e-06 -7.994083538e-06
-1.040427459e-05 2.241746997e-06 -9.919877626e-06
-1.223654023e-05 2.934425542e-06 -1.176173491e-05
1.840667858e-06 5.233137109e-08 1.328846309e-05
-1.552005998e-07 8.320233033e-06 7.43673138e-07
-2.310953083e-07 1.092395829e-06 2.338868523e-07
-2.188797121e-06 1.686227444e-07 7.06858037e-06
2.614649471e-06 1.775314356e-05 -1.924525117e-06
5.805241963e-06 2.063067786e-05 -8.684634388e-07
3.949010603e-05 1.983412404e-05 1.301323655e-05
1.189979036e-05 4.914685103e-07 5.540938749e-07
5.729257421e-06 4.20260871e-06 6.648697363e-06
1.616497168e-06 3.847898121e-07 8.134133183e-06
-3.263346372e-07 8.359654842e-09 1.502389029e-06
-4.00696266e-06 2.258734481e-08 1.716897564e-05
-8.046106566e-06 5.271498294e-07 3.004111494e-05
-6.624145372e-08 3.532768932e-06 3.323176753e-07
5.509853132e-08 6.880483865e-07 2.05629655e-07
8.151875025e-07 4.115414606e-06 -8.518276727e-08
7.454549378e-07 8.363586566e-06 -1.559402069e-07
8.983102154e-08 1.126056895e-05 1.022371184e-07
3.313616473e-07 4.123857921e-05 3.371735814e-07
9.573864598e-06 7.009020221e-06 9.581580115e-06
6.032325869e-06 4.202606356e-06 5.112885736e-06
