# .PCD v0.7 - Point Cloud Data file format
VERSION 0.7
FIELDS x y z
SIZE 4 4 4
TYPE F F F
COUNT 1 1 1
WIDTH 72
HEIGHT 1
VIEWPOINT 0 0 0 1 0 0 0
POINTS 72
DATA ascii
-9.323282572e-06 -3.626474376e-05 -1.992006428e-06
-4.47800044e-06 -7.869156522e-05 1.66063039e-07
-5.981144853e-07 -2.424317002e-06 9.167544858e-07
-1.654377514e-05 -3.251749956e-06 -1.572866974e-06
-4.531842547e-06 -2.355167948e-06 -2.568452921e-06
-2.067957782e-06 3.667318413e-05 -4.780058206e-07
-2.464372866e-05 1.706181776e-06 -1.806069945e-06
-1.767701914e-05 2.919526407e-06 -7.540596634e-07
-3.930635884e-06 -6.699632906e-06 6.028690429e-06
-2.272395559e-05 -2.546823861e-06 -1.88157238e-06
-5.956335881e-05 1.063077374e-06 -4.793637173e-06
-4.004634624e-05 1.131272076e-06 -3.076277867e-06
-7.047700456e-06 1.216336487e-05 1.113845928e-05
-4.01911224e-07 3.249342583e-06 1.816782649e-06
1.802221329e-06 -4.211870774e-08 2.908395872e-06
1.984644003e-06 -4.084617847e-08 3.110170168e-06
1.578164212e-05 7.295031381e-05 1.688708339e-05
2.086794978e-06 5.293582429e-05 2.149589076e-06
-3.694601738e-07 -0.0001331971723 3.69441992e-07
9.597748666e-06 -1.616483399e-11 -9.597752629e-06
5.900838141e-05 -1.2653182e-11 -5.900839111e-05
6.092019184e-05 -8.986137224e-07 5.116578608e-05
-5.226513622e-06 -3.281139338e-06 -3.143458137e-06
-1.401744448e-06 -2.563485879e-06 -7.427898685e-07
-1.656278317e-06 -1.27838958e-06 -1.656280144e-06
-7.547545544e-06 2.489220365e-07 -4.528331384e-06
-1.292906556e-06 6.442641964e-08 5.110500376e-08
-4.161486e-06 3.272097279e-06 8.639554837e-06
-4.742643477e-06 -1.707150934e-07 2.383566647e-05
-1.401221288e-06 -5.515130881e-07 5.245519723e-06
9.963392631e-06 7.437151362e-06 6.920984123e-06
2.264970277e-05 -0 1.887166408e-05
1.088142166e-05 -1.008460623e-05 7.557564669e-06
2.475953722e-06 -4.978620015e-13 -2.47594831e-06
-7.724589903e-06 9.108988718e-06 -5.482578364e-06
-3.186211962e-06 8.424837849e-06 -3.151383011e-06
-9.998424812e-07 2.318750142e-06 -9.998468193e-07
-7.698822482e-06 1.759532334e-05 -7.475378197e-06
-3.70620936e-07 -3.428285447e-07 -3.706217854e-07
-6.957927915e-07 -5.370448851e-07 -6.957941222e-07
-2.39502028e-06 1.186537575e-07 -3.957237565e-07
-1.321191707e-05 1.711672345e-06 -6.903755389e-06
-1.562946571e-06 1.747879413e-06 -1.110669282e-06
-2.288709197e-06 1.180651955e-07 -3.43895072e-06
-3.33254735e-06 1.180651955e-07 -5.209729084e-06
-8.754871491e-07 6.757424869e-07 -8.754909476e-07
1.083159591e-05 1.043559999e-13 -1.083160346e-05
6.082447745e-07 4.29468062e-07 1.273033407e-07
3.835673962e-06 9.190232e-12 -3.835670591e-06
4.673339777e-06 -4.978619997e-13 -4.673334365e-06
3.032035507e-05 -4.595115997e-12 -3.032035675e-05
3.425976263e-06 5.811077435e-06 2.379824645e-06
1.563921907e-05 3.087955436e-05 1.099131295e-05
9.618994799e-06 5.439383853e-06 6.862138983e-06
2.584382529e-06 1.698327785e-06 1.81631623e-06
2.560101454e-06 -1.698337898e-06 1.840614204e-06
8.090904288e-06 -4.541902846e-06 5.913705571e-06
1.328382294e-06 -0 1.761284704e-08
2.390417084e-06 3.003788322e-08 -1.303211103e-07
3.511408353e-07 -1.819797348e-22 -3.511408353e-07
4.206565405e-07 -1.448090006e-13 -4.206607065e-07
-6.731185207e-07 1.561038626e-06 -6.731208719e-07
-6.746874299e-07 1.793610493e-06 -7.619742115e-07
1.22448824e-06 6.149397997e-12 -1.224495997e-06
9.535871234e-07 4.363754003e-12 -9.535925762e-07
-2.893113981e-07 -2.604253917e-07 -3.3305026e-07
8.439554568e-09 1.85261998e-13 -8.43907452e-09
-6.908841831e-08 -5.332599934e-08 -6.908907806e-08
-4.834874204e-06 3.266905007e-06 -3.548765503e-06
-1.310182997e-06 1.225868922e-06 -9.598670449e-07
-7.905162252e-07 6.101564208e-07 -7.905180685e-07
-1.656278939e-06 1.278389168e-06 -1.656281388e-06
