# .PCD v0.7 - Point Cloud Data file format
VERSION 0.7
FIELDS x y z
SIZE 4 4 4
TYPE F F F
COUNT 1 1 1
WIDTH 46
HEIGHT 1
VIEWPOINT 0 0 0 1 0 0 0
POINTS 46
DATA ascii
-2.465229738e-05 1.551853691e-05 -6.290133512e-07
-5.157446048e-05 3.136296618e-05 -0
-1.137004862e-05 -5.88804349e-05 0
6.579487025e-06 -5.127891744e-05 1.103950843e-05
2.573836401e-05 -5.56644148e-05 1.286087443e-05
4.3652666e-05 -9.368365861e-05 2.109347747e-05
-4.640190754e-06 -3.782842319e-05 -3.272444876e-05
-4.689299327e-06 -4.271768498e-05 -3.539060782e-05
3.049763047e-07 -1.575974143e-05 -9.895029711e-06
-8.030580912e-07 -9.310951848e-06 -9.502951093e-06
-7.153632137e-06 -5.456812454e-06 -1.61635179e-05
3.921962344e-06 -5.616711221e-06 2.849889166e-06
-7.02195085e-06 4.127525101e-06 -6.617016886e-06
-2.611599592e-05 1.320292967e-05 -3.184396957e-05
-5.333004168e-07 6.111542378e-06 -1.17488099e-07
-5.735643931e-07 -7.63241924e-07 -1.086509817e-05
-7.204895621e-07 -3.05611541e-06 -2.067082071e-05
8.182814157e-06 1.142243791e-06 -3.785872184e-07
-3.788741318e-06 4.106775654e-05 -4.750231532e-06
-4.543197733e-06 8.313505862e-05 -9.766239372e-07
4.288372064e-06 3.174091334e-05 4.624816918e-06
-5.483568688e-06 1.226425746e-05 1.20365829e-05
-4.900889432e-07 4.560972662e-05 2.035636548e-06
-1.444915311e-06 4.468634769e-05 8.989476551e-07
5.107442643e-07 4.341650256e-06 8.752140678e-06
9.568283927e-07 2.321207222e-05 1.979058297e-06
-1.544213657e-07 2.594781685e-05 1.269675955e-06
-6.320312332e-07 5.688563726e-06 1.08609433e-05
0 -0 2.367253821e-07
-1.061397828e-06 7.509609425e-06 1.399526478e-05
1.353213551e-05 -9.493749594e-06 9.722685679e-06
4.558262343e-06 -3.439783053e-06 3.231788955e-06
9.320175334e-06 -1.039061099e-06 1.326178604e-05
1.097749527e-07 7.258035758e-07 2.211117227e-07
3.821317274e-06 2.831558996e-06 9.973453544e-06
2.02402761e-05 -1.193089543e-06 1.826824227e-05
5.454751631e-06 -1.725753958e-06 4.570288501e-06
1.167671755e-06 -7.117505159e-08 1.146628821e-06
1.498614402e-06 -1.550077038e-07 1.690579995e-06
-3.261714598e-06 4.407315869e-06 2.60659154e-06
-6.42098269e-06 7.817986201e-06 3.988603957e-06
-1.578552158e-07 3.347792577e-07 1.072508625e-07
2.002610205e-06 -1.197048156e-06 9.295449178e-07
8.6356749e-07 -5.596322585e-08 6.715530541e-08
2.9434997e-06 -5.514427127e-06 1.513920516e-06
7.638331599e-06 -8.884793951e-06 4.692230227e-06
