# .PCD v0.7 - Point Cloud Data file format
VERSION 0.7
FIELDS x y z
SIZE 4 4 4
TYPE F F F
COUNT 1 1 1
WIDTH 42
HEIGHT 1
VIEWPOINT 0 0 0 1 0 0 0
POINTS 42
DATA ascii
2.319574695e-07 -7.403362205e-06 2.087945977e-05
-4.200608735e-06 2.883658701e-06 2.889603164e-05
-2.817090492e-06 -9.940363329e-07 -2.817092955e-06
-4.260044936e-05 -7.854018363e-06 -4.086199964e-05
-8.021643836e-08 3.049600084e-06 2.189632815e-07
-2.187189858e-07 9.98271837e-06 4.716708721e-07
-3.47026798e-06 0.0001844829517 2.371329831e-06
-2.890440424e-07 1.750138179e-06 -2.193511692e-07
3.751375319e-07 -8.464928282e-07 2.13940299e-06
1.808236992e-06 -5.465553973e-06 1.135953393e-05
-1.36295214e-07 -1.198381542e-07 -1.74228305e-07
-7.481413862e-06 -6.078893417e-06 -8.270158646e-06
1.137932791e-06 -2.859579884e-06 2.641271327e-06
3.033502101e-06 4.482992917e-06 -2.990107575e-06
3.33559265e-06 4.18225901e-06 -3.335593452e-06
1.258605576e-05 1.6059903e-11 -1.258606096e-05
-4.741923923e-07 0.000121756242 1.652764205e-06
6.083110804e-08 1.257193089e-05 6.086225714e-08
6.083992867e-08 1.257195183e-05 6.085527707e-08
4.832815574e-06 -3.020632294e-06 5.713485902e-06
-4.97078196e-06 -5.878216275e-05 -1.17952285e-05
-8.592933904e-08 -6.230107869e-05 -3.808924278e-06
6.135327148e-06 -3.262365743e-05 4.266989786e-06
2.23370148e-06 -1.302709377e-05 -2.532314621e-06
1.412649242e-07 -6.820710129e-13 -1.41265764e-07
-6.115956039e-08 -1.308848778e-07 -1.000009043e-07
-3.163046541e-06 -6.996108515e-06 -4.366638814e-06
-1.724846088e-05 -5.015269333e-05 -2.600339881e-05
4.430862504e-06 -1.085463721e-05 4.50530942e-06
1.451245065e-05 -3.870385423e-05 1.487904949e-05
1.398483208e-06 -3.645081756e-06 1.601542126e-06
2.086965242e-07 -1.030914055e-07 5.843316444e-08
1.660955259e-07 -1.111056315e-07 4.093592061e-08
1.590836586e-06 5.353300997e-12 -1.590838319e-06
5.183167855e-06 -8.636360002e-12 -5.183166562e-06
3.883141813e-06 -5.341413365e-06 4.395300571e-06
3.338462604e-06 -2.780317447e-06 3.865859908e-06
3.745647698e-07 -2.891060276e-07 3.745630195e-07
3.745653979e-07 -2.891060276e-07 3.745640058e-07
1.404708218e-05 -3.272901042e-05 1.413212446e-05
1.590564449e-06 -3.688675728e-06 1.590560695e-06
2.255062525e-07 -5.229696726e-07 2.255054144e-07
