# .PCD v0.7 - Point Cloud Data file format
VERSION 0.7
FIELDS x y z
SIZE 4 4 4
TYPE F F F
COUNT 1 1 1
WIDTH 46
HEIGHT 1
VIEWPOINT 0 0 0 1 0 0 0
POINTS 46
DATA ascii
-0.0008135673759 -0 -0
-0.0003053069896 -0 -0
-4.260590059e-07 0.0001761001831 -0
-0 -0.00016799962 0
-0.0004343770419 -0 0.0005508712663
-0.0003053069896 -0 0
0.0004354640367 -1.153785606e-05 0.0006008868606
0 -0.00016799962 -0
0.0003057330486 -8.100563099e-06 -0
-0.0007662245788 0.0001958673124 -0.0004120418906
-2.90016792e-10 6.58817062e-07 -9.256025051e-06
-0 -0.0003108234302 -0.0006327586052
-4.612131141e-06 -0 -0
-2.71733366e-07 0.0001760719352 -7.545795813e-07
-4.121080613e-08 9.361658692e-05 -3.028851009e-05
-1.218274281e-06 0.0007893911353 -0.0002548445416
0.000305578723 -8.072315165e-06 -2.05173247e-07
4.062794505e-07 -2.130714752e-08 -4.754333172e-06
9.989770776e-06 -2.212260439e-05 -5.819649387e-05
2.341780193e-05 -1.228136348e-06 -2.917480718e-05
-1.295846546e-05 -1.982115147e-05 0.0001066058743
-0 -0.0002391669171 0.001045534943
-6.063205892e-07 0.0002506065247 0.0001913326427
-4.747435625e-05 5.960386526e-06 6.861964678e-05
-3.171952963e-08 -1.070039473e-09 1.39901283e-05
-3.506895385e-08 5.917479973e-09 3.136074223e-05
-1.231776434e-05 2.664017315e-06 -7.733174825e-06
-3.147605413e-06 -0 -3.463433855e-06
-2.126537834e-05 -1.267041597e-05 -5.141737242e-05
-2.137030001e-07 4.621849198e-08 -1.919603461e-06
-0 -0.000307677322 -0.0003559229774
0.0005764985824 -1.478377339e-05 -1.710195802e-05
0.0002546494791 -6.726943655e-06 -5.717909977e-06
-0 -0.000139999982 -0.0001190001485
0.0007667432454 0.0001814871316 -0.0004468241656
3.147605413e-06 -0 -3.539275894e-06
4.612131141e-06 -0 -3.880989833e-07
1.274714984e-08 -4.059689367e-08 2.729122818e-06
1.247006093e-05 -1.896112246e-05 0.0001020336436
7.641769254e-07 -1.594779184e-05 7.104504765e-05
1.185549918e-07 4.25192506e-05 3.292473397e-05
4.668109247e-05 6.376533865e-06 7.514526688e-05
-2.769655923e-08 7.892665819e-09 2.71462855e-05
-0 -0.000307677322 -0.0003559229774
-1.68565836e-05 -0 -0
-0 -0.000139999982 -0.0001190001485
