# .PCD v0.7 - Point Cloud Data file format
VERSION 0.7
FIELDS x y z
SIZE 4 4 4
TYPE F F F
COUNT 1 1 1
WIDTH 46
HEIGHT 1
VIEWPOINT 0 0 0 1 0 0 0
POINTS 46
DATA ascii
0 0 0.00075000005
-0.000225000075 -0 0.0002987683399
-0 -0.00018750005 0.0002625
-0 -0 0.00075000005
-0.0001153336823 1.181105438e-05 -0
-9.705314963e-05 9.938987517e-06 -0.001111947621
-0.0001153336823 1.181105438e-05 -0
-0.0003456688822 3.539914694e-05 0.0002907203516
-4.153373608e-06 -0.0001714682332 0.0002313080868
-1.602914242e-07 5.263737896e-05 -0
-4.027809643e-06 -0 -0.0001402968887
-2.158413436e-05 -0 -0.0002639848603
2.65214129e-05 -3.425164106e-05 -0
-1.385788241e-06 -5.721100091e-05 -0
9.048682663e-05 -0.0001026562774 3.266941281e-05
6.033815628e-05 -6.845295319e-05 2.007311569e-05
0.000225000075 -0 0.000134495229
-4.137227518e-06 -1.108561032e-06 -5.357646505e-05
-3.885573382e-06 -3.29661085e-06 -5.847712042e-05
-0 0.00018750005 0.0002625
-4.804126281e-07 0.0001577605396 0.0002198529046
-1.602914242e-07 5.263737896e-05 -0
-1.473533643e-05 -3.948301053e-06 2.254253059e-05
-1.746211216e-05 -1.774315223e-05 3.998367479e-05
-5.826297359e-06 -5.920067404e-06 7.203403972e-07
-4.617444025e-06 -3.91754693e-06 0
-4.916498701e-06 -1.317365035e-06 0
-4.916498701e-06 -1.317365035e-06 -0
-9.258483208e-07 2.979116581e-07 -3.994542846e-05
1.317473228e-05 2.02388511e-05 -0.000255071306
-1.407269774e-07 4.621269839e-05 -0.0006365527431
-2.753018647e-06 6.367540709e-06 -0.0001187781054
2.365852874e-05 2.371267574e-05 -0
7.090744891e-05 7.106973395e-05 1.247692079e-05
-1.017248571e-06 -1.685118479e-06 -1.900366243e-05
-3.701274251e-06 -1.983876325e-05 -0.0001338896855
-1.38375198e-06 -5.712693577e-05 -0.000249884527
-1.208853334e-06 -2.002520474e-06 -0
-1.385788241e-06 -5.721100091e-05 -0
0.0001124975384 5.420582809e-05 -0.0002212045532
7.376379629e-06 5.378598937e-06 -4.655970113e-05
1.643566759e-05 -0 -0
8.91724138e-06 -0 -0
1.451320137e-05 -0 8.675358625e-06
0.0002065926401 3.158654342e-05 1.1886302e-05
0.0001269352221 1.940749149e-05 -0
