# .PCD v0.7 - Point Cloud Data file format
VERSION 0.7
FIELDS x y z
SIZE 4 4 4
TYPE F F F
COUNT 1 1 1
WIDTH 52
HEIGHT 1
VIEWPOINT 0 0 0 1 0 0 0
POINTS 52
DATA ascii
-0 -0.000129504816 0
0 -0.000129504816 -0
-0.00023519715 -3.7903848e-05 -0
-0.0003135962392 -5.053847032e-05 -7.5807696e-05
-0 -0 0.0004981647296
-6.3173082e-05 -0 6.308028074e-05
-0.000138480798 -1.956732e-06 0.0001330204813
0.000132000012 -0 -0
6.480786e-06 0.000131461548 0.0007218004812
-0 -0 0.0004820257198
-3.997005539e-05 -5.317044665e-05 -7.975566e-05
-0 -0.0003108426827 -0.0003584240903
-0 0.0001646731486 -0
-4.211538926e-05 5.053847032e-05 -0
-3.1586538e-05 3.7903848e-05 0.0001998852708
0 0.000123504846 0.0006568947343
0.000176000038 -0 -2.1999892e-05
0.000132000012 -0 -0
0.000197956758 5.99997e-06 0
-6.22586401e-06 -5.699917067e-06 -1.22778865e-05
-9.178279076e-05 -6.547053967e-05 -0.0001424003504
-0.0006729703096 -4.813113835e-05 -0.0003677770315
-8.151885885e-05 2.143318225e-06 -4.566997169e-05
-0.0002625893284 -0 -0.0001440115161
-0.0001290415185 3.478443844e-05 -8.380770141e-05
-2.59298102e-05 7.904235306e-06 -1.5274418e-05
-3.883801563e-05 4.547353442e-06 -2.287822705e-05
0.0003018270137 -0 -3.772818336e-05
0.0006413822863 -0 -0.0003285628473
-4.205181239e-06 -3.202802499e-05 -6.533037618e-05
1.907189088e-05 -1.600308506e-05 -3.498298087e-05
-0 -0 -6.85664781e-06
-9.851683344e-08 -4.057907808e-08 -1.408574775e-05
-1.906972823e-07 2.959146167e-08 -2.978602245e-06
-6.315878277e-07 1.695667857e-07 -5.07033914e-06
-0 0.0002326875033 -0.0001703481359
-1.405400227e-05 2.458880005e-05 -2.537690636e-05
-0 0.0001013867748 -0
-0 4.208250926e-05 -0
0.0001625053421 4.925455373e-06 0
0.0001273668451 3.074505627e-06 -5.264396678e-06
5.220594732e-06 -8.540158796e-05 -0.0001038892448
3.707001503e-05 -5.766071101e-05 -9.112478384e-05
3.842030268e-06 -6.285021204e-05 -0.0001233082256
7.980912813e-05 -7.435808074e-05 -0.0001575479678
3.854758182e-05 0.0001080549627 -8.646836195e-05
3.245976162e-06 3.471345975e-05 -2.632333187e-05
4.630249892e-05 3.751730633e-06 -2.61349215e-05
6.37780326e-05 2.724185789e-05 -4.664553054e-05
1.716716589e-05 1.440261283e-05 -1.730630221e-05
1.161795464e-07 9.842967465e-08 -1.724664811e-06
5.055461022e-07 3.967511883e-07 -7.728758244e-06
