# .PCD v0.7 - Point Cloud Data file format
VERSION 0.7
FIELDS x y z
SIZE 4 4 4
TYPE F F F
COUNT 1 1 1
WIDTH 54
HEIGHT 1
VIEWPOINT 0 0 0 1 0 0 0
POINTS 54
DATA ascii
-4.257678106e-05 2.538859853e-06 -5.552130731e-07
-7.950312563e-06 0.0001279052296 -6.84206742e-07
-1.814451142e-05 -2.831335333e-06 -2.107873853e-05
-5.347750643e-06 -3.980457311e-06 -9.179934279e-06
-3.069297392e-06 3.378351302e-05 -3.100946775e-06
-5.735643931e-07 -7.63241924e-07 -1.086509817e-05
-7.204895621e-07 -3.05611541e-06 -2.067082071e-05
-3.324470198e-05 1.174023016e-06 -0
-8.030580912e-07 -9.310951848e-06 -9.502951093e-06
-3.163398288e-06 -2.561841563e-05 -2.207243535e-05
0 -4.691451244e-05 -0
9.568283927e-07 2.321207222e-05 1.979058297e-06
4.288372064e-06 3.174091334e-05 4.624816918e-06
8.182814157e-06 1.142243791e-06 -3.785872184e-07
0 -1.554692789e-05 -8.475711628e-06
7.133621641e-07 -1.016773545e-05 -4.46263006e-06
0 -2.280566339e-05 -0
-2.156372698e-06 -2.671172458e-07 1.2389498e-06
-1.419648255e-06 -4.199758548e-07 2.866903586e-06
-4.007821267e-07 1.888048235e-05 6.651445347e-07
-1.544213657e-07 2.594781685e-05 1.269675955e-06
-1.238188418e-06 -3.588488773e-07 2.657642414e-06
2.585642459e-07 -1.793300811e-07 4.089283442e-06
1.157563976e-05 -7.581310956e-06 6.994688399e-06
0 -5.212723246e-06 -0
4.743073065e-06 -2.476043623e-05 -4.743073065e-06
-7.69332279e-07 -3.36522652e-07 1.580173465e-06
-1.287199648e-06 -4.730119234e-07 1.287199648e-06
-0 -6.515900021e-06 0
2.74126045e-05 -7.360253989e-06 2.329770539e-05
2.572225903e-06 -7.408872202e-07 2.254519539e-06
2.02402761e-05 -1.193089543e-06 1.826824227e-05
1.097749527e-07 7.258035758e-07 2.211117227e-07
1.498614402e-06 -1.550077038e-07 1.690579995e-06
1.167671755e-06 -7.117505159e-08 1.146628821e-06
2.082263763e-06 -3.017963255e-07 5.51349826e-06
1.676460581e-06 -2.144296719e-07 4.523294286e-06
4.676967948e-08 -2.810603714e-07 3.219260458e-06
-9.072548009e-08 -2.650160952e-07 2.499675549e-06
-6.835464092e-08 -5.079256714e-07 1.514737721e-06
2.002610205e-06 -1.197048156e-06 9.295449178e-07
8.6356749e-07 -5.596322585e-08 6.715530541e-08
4.195675757e-06 -5.473009481e-06 1.581711544e-06
1.068590778e-05 -8.871874691e-06 5.619700492e-06
0 -1.303181619e-06 -0
4.743073065e-06 -1.26991272e-05 -0
7.114611067e-06 -2.63825346e-05 -2.371538002e-06
-0 -5.864313652e-06 0
-0 -1.512020461e-06 4.069475282e-06
3.933862409e-07 -5.737896443e-07 2.220023028e-06
1.41594412e-06 -1.127793139e-06 4.599750351e-06
1.412932448e-06 -1.217300735e-06 2.825866646e-06
2.825866646e-06 -1.278644003e-06 2.825866646e-06
0 -1.303181619e-06 0
