# .PCD v0.7 - Point Cloud Data file format
VERSION 0.7
FIELDS x y z
SIZE 4 4 4
TYPE F F F
COUNT 1 1 1
WIDTH 54
HEIGHT 1
VIEWPOINT 0 0 0 1 0 0 0
POINTS 54
DATA ascii
-2.723535605e-06 -8.324805373e-08 -3.889616364e-06
-1.0591525e-06 -7.323594215e-07 -1.51262825e-06
6.375337789e-08 6.561105394e-06 -6.375337789e-08
-1.530922058e-05 8.521958214e-07 -1.286678524e-06
-2.319921516e-06 -6.098371194e-08 4.975093106e-06
-0 -7.819086483e-06 -0
-5.930904665e-06 -3.138466446e-07 9.312230017e-07
-1.704615392e-05 -7.576428826e-07 1.079006103e-06
-1.204263268e-06 -2.660600303e-08 -1.864930914e-06
-2.010691028e-08 1.332619012e-06 -3.113770849e-08
-1.512612715e-08 1.147892294e-05 -2.382044579e-07
-1.31190425e-06 2.820367231e-07 1.643694589e-06
-2.247018859e-06 6.971050351e-08 3.629411917e-06
-1.028878568e-06 -2.41435042e-08 4.260506604e-07
-4.270050949e-07 3.584753953e-08 8.402550367e-06
4.222800938e-08 -1.373285453e-07 8.208874824e-06
2.619608082e-06 -1.338462595e-08 5.479084218e-06
-7.12946526e-09 1.769766493e-06 1.402926842e-07
4.373813109e-08 3.162197943e-06 9.148120492e-08
1.126173759e-07 6.874507357e-06 5.384365409e-08
3.818381349e-06 -1.282509157e-07 -3.818381349e-06
-4.20392e-07 -2.029143692e-06 -4.823455e-06
-0 -3.101710189e-06 -5.6504805e-06
-1.08100824e-06 9.274493586e-08 -1.240317276e-05
-9.059492013e-07 3.265264585e-07 -1.426678067e-05
3.632450307e-06 -1.22006626e-07 -3.632454807e-06
1.41261925e-06 -2.476758973e-07 -1.412621e-06
-0 -1.303180004e-06 -0
-1.412621e-06 -9.369639489e-07 -1.41261925e-06
-2.82524025e-06 -3.848122519e-07 -0
-1.412621e-06 -8.204459521e-07 1.41261925e-06
-9.021915e-07 -6.942994039e-07 1.934758e-06
-0 -5.212724053e-06 0
7.442503558e-08 5.090751485e-06 -6.627044202e-09
7.906463521e-08 5.714403084e-06 -1.87499151e-08
6.287361813e-06 1.763103306e-07 3.006059518e-06
-0 -1.947428013e-06 4.23786125e-06
1.6422e-08 -1.447799366e-06 3.1923395e-06
-0 -7.819088905e-06 0
2.632941585e-06 -1.364827501e-07 4.413164481e-06
5.52293743e-06 -1.897062123e-07 3.751656224e-06
1.0239215e-06 -6.509592032e-07 1.71623025e-06
3.27730322e-06 -3.742129543e-07 -9.913384464e-07
1.143625168e-06 -3.177546102e-07 -1.152390273e-07
4.977220318e-06 -1.923802542e-06 -0
0 -1.95477041e-06 -0
2.448911804e-06 -7.983973726e-07 1.485045719e-06
1.412621e-06 -7.836258629e-07 1.41261925e-06
4.92380782e-06 -2.549012779e-07 -1.804251134e-06
4.607356633e-06 -3.523183437e-07 -1.425058056e-06
1.88264836e-06 4.441632394e-08 -4.464637929e-07
1.772172486e-06 4.041973963e-08 -1.5779993e-07
1.23315613e-06 -1.681242626e-08 -1.070610465e-07
4.549051698e-06 1.342096768e-08 -2.434564497e-07
