# .PCD v0.7 - Point Cloud Data file format
VERSION 0.7
FIELDS x y z
SIZE 4 4 4
TYPE F F F
COUNT 1 1 1
WIDTH 114
HEIGHT 1
VIEWPOINT 0 0 0 1 0 0 0
POINTS 114
DATA ascii
2.271669602e-06 -0.0001011800979 -2.755298537e-06
4.898957789e-07 -2.541860574e-05 -5.361145564e-07
7.718194195e-09 -4.048919909e-05 9.550588646e-09
-3.7394642e-06 7.513253062e-07 -2.875048577e-06
-4.122349723e-06 1.87201651e-07 -3.219767673e-06
-9.983093589e-06 3.209247392e-06 -1.005445124e-05
-6.820520227e-06 -7.069618646e-08 3.696738116e-06
-4.99105959e-07 -3.370205521e-06 5.353040742e-08
-2.490746947e-05 -2.747872268e-07 -3.485856995e-07
-2.28117526e-05 1.422624001e-07 -7.709301172e-07
-1.466107586e-05 2.209631379e-06 -2.154018051e-07
-6.426978247e-06 8.304038035e-07 -3.515351391e-06
-0 1.954770975e-05 -0
8.273318729e-08 -1.658831179e-05 -1.072883543e-06
5.733996097e-08 -8.067420188e-06 -4.794980941e-07
-6.683712088e-06 -2.825506978e-06 -9.89649624e-06
-2.05007172e-05 -5.010196282e-07 -2.640815756e-05
-6.948010349e-06 -9.155925334e-08 -6.82464979e-06
-4.206606264e-08 -9.00020055e-06 4.34537365e-07
2.325101796e-08 -1.254930525e-06 1.897741921e-07
-0 6.892039546e-06 1.112760692e-05
-1.75658325e-05 5.684243496e-06 -2.405132765e-05
-2.027259381e-07 -7.616561879e-08 -3.805429864e-06
-4.690164608e-07 -2.626340914e-07 -1.332226945e-05
8.803972998e-06 2.30523518e-05 -1.837913895e-05
6.614168464e-06 4.745273354e-06 -8.849260901e-06
1.526846033e-05 5.365724088e-06 -1.434179227e-05
4.912223212e-06 7.672975577e-07 -2.003834691e-06
-6.419262655e-06 7.133226671e-06 -1.292520848e-05
-0 2.285673162e-05 -2.07656182e-05
-6.026157624e-06 2.814752276e-06 -6.088743668e-06
0 1.954770975e-05 0
1.510268221e-05 8.262181393e-06 4.851142213e-06
3.739353878e-06 3.736760439e-06 4.609339277e-08
-0 3.909544856e-06 -0
1.518911198e-05 -7.466879514e-08 7.532233565e-06
-1.226499637e-06 5.066316588e-08 -3.243294819e-07
-1.374630512e-06 7.147336011e-08 -1.009493502e-06
-6.382369567e-06 6.076596823e-07 -3.400778432e-06
-1.481814022e-05 2.630347184e-06 2.219967489e-07
-8.175200159e-06 1.824619434e-06 2.482771442e-06
3.389171045e-06 -5.746959789e-06 5.717475784e-07
6.83551976e-06 -1.644205994e-06 2.279207193e-06
1.371419873e-05 -1.044495583e-06 2.029141724e-06
4.548936535e-05 -3.746069667e-06 5.827561511e-06
-3.901388553e-07 -4.969105635e-07 -1.859777933e-05
1.972843236e-09 -3.730016002e-07 -1.024520132e-07
4.192084509e-07 1.455128415e-07 -4.407493276e-07
6.374457074e-07 1.333795903e-07 1.016409163e-05
-4.742685326e-06 8.148829393e-07 -6.622785024e-06
-1.015956438e-05 9.197041531e-07 -1.407163908e-05
-5.875475796e-07 6.059714613e-08 -1.091151874e-06
-1.493000471e-06 1.315520278e-06 -2.793494089e-06
-3.535325595e-06 2.767207307e-06 -6.365992381e-06
-4.758535649e-08 7.603682803e-08 -2.790274084e-06
5.187984184e-08 1.006607605e-07 -1.203727084e-06
-0 2.606364045e-06 -0
3.190583813e-06 6.036995675e-06 -3.190587766e-06
1.276234711e-05 1.301918574e-05 0
5.985749776e-06 2.655187227e-06 6.130522609e-06
2.126625632e-06 9.53867784e-07 2.126628266e-06
2.126259047e-06 9.329493636e-07 1.922148124e-06
1.110742878e-05 3.430491274e-06 1.12944747e-05
4.12215054e-06 1.205367865e-06 3.858439821e-06
1.293374649e-07 -2.318825649e-07 9.235459979e-08
2.514113256e-06 -1.905206818e-08 2.489565331e-06
2.013353159e-05 2.484486912e-06 9.752711053e-06
2.184260317e-05 3.509254721e-06 9.113093543e-06
8.00894405e-06 -1.78482194e-07 1.903750678e-06
0 3.909544856e-06 -0
-2.155908018e-06 1.011191105e-06 -2.155910689e-06
-4.560231336e-06 2.485051961e-07 3.701881474e-06
-6.504323615e-06 5.217717233e-07 5.4730428e-06
-4.488349317e-06 1.856236964e-06 1.499944398e-06
-4.532111569e-06 2.505057758e-06 2.266057188e-06
0 1.954772832e-06 -0
-8.213113521e-06 2.851432041e-06 5.445171013e-08
-6.467729396e-06 2.289282961e-06 -0
-1.660529273e-07 2.373329329e-06 4.173214262e-06
2.363131642e-06 1.780680592e-07 4.380677418e-06
1.28814742e-06 -3.292560995e-07 3.492269962e-06
5.442852039e-07 1.804714325e-08 3.406250413e-06
3.069201971e-06 2.126953361e-07 4.048793029e-06
2.84323066e-06 2.428197085e-07 5.047959638e-06
3.774081412e-06 -1.577680568e-07 2.683691429e-06
1.927959801e-06 -7.542164928e-08 1.308332698e-06
1.201793431e-06 -6.469045139e-08 8.415046628e-07
1.277177908e-06 1.714322969e-08 5.532526915e-07
6.621570769e-06 7.467077547e-08 3.204185198e-06
5.226276219e-06 1.881055128e-07 2.496055432e-06
-4.518478951e-06 3.680942785e-07 4.518473353e-06
-3.252069875e-06 1.956293214e-07 3.252065846e-06
-5.977680216e-07 7.261826331e-07 1.796841513e-06
-1.746169311e-06 2.372688799e-06 5.981463528e-06
-6.788344383e-07 1.234448929e-06 7.933634981e-06
-2.962856369e-07 1.001986569e-06 7.321303988e-06
3.141996699e-06 5.258926315e-07 4.885011714e-06
6.639221328e-06 1.28010925e-06 1.030018343e-05
9.326583196e-07 2.66223115e-07 1.034859537e-06
8.543483657e-07 8.354247931e-08 1.165078211e-06
-1.029895406e-07 -6.61335858e-07 2.068370094e-07
-2.1853773e-06 1.314619549e-07 2.185375342e-06
-9.040695299e-08 2.150546792e-07 2.262133752e-06
-1.459834864e-07 4.831477612e-07 1.029512541e-05
-5.069886664e-07 5.678483035e-07 3.642208855e-06
-3.032604478e-06 9.587816722e-08 5.680882383e-06
-1.705812151e-06 -1.813084558e-07 3.658126285e-06
-5.697562071e-07 8.204937789e-08 2.278226281e-06
-1.694365119e-06 2.829711275e-07 3.943322735e-06
-1.344266909e-06 2.840399979e-07 3.127628402e-06
-2.277600913e-06 5.314881941e-07 4.552683813e-06
-7.955485832e-07 4.71677559e-07 2.687087724e-06
-2.422231796e-06 1.541134122e-06 8.692174066e-06
-2.042741493e-06 1.304592095e-06 7.432697228e-06
