# .PCD v0.7 - Point Cloud Data file format
VERSION 0.7
FIELDS x y z
SIZE 4 4 4
TYPE F F F
COUNT 1 1 1
WIDTH 46
HEIGHT 1
VIEWPOINT 0 0 0 1 0 0 0
POINTS 46
DATA ascii
-2.242896129e-06 -3.907859757e-05 -1.204634393e-06
4.074520173e-06 -1.469429043e-07 4.322725542e-05
6.073565466e-05 -4.687169199e-07 4.338966744e-06
3.059283509e-05 -1.149652187e-07 2.451823722e-06
-1.053615118e-07 3.902814687e-08 2.670576102e-06
2.610577179e-06 -1.904183435e-07 2.874821063e-05
2.592995292e-07 -3.047894103e-07 3.359038292e-06
-6.446379858e-06 -5.500893269e-06 -6.792977438e-06
-1.53535011e-06 -1.284504725e-05 -9.727984816e-07
-2.568730549e-06 -2.841004583e-06 -8.562304941e-07
2.199509087e-06 -8.074370191e-08 -5.398065862e-07
-1.535596283e-06 1.602037522e-06 -2.054873525e-07
-1.572417159e-05 2.336505881e-07 -5.316715905e-06
-9.877183826e-07 -4.771650344e-07 -7.173743819e-07
-4.860848211e-06 -2.217701756e-06 -2.061109259e-06
-1.668582769e-06 -1.290437794e-06 -1.727339652e-06
-5.920816365e-06 -3.874852889e-06 -5.920814898e-06
-5.976655605e-07 8.074380194e-08 -1.062038997e-06
1.461126631e-06 1.968627483e-07 -3.125182308e-07
-1.860895543e-06 3.528160367e-06 -2.122205959e-06
-4.830217553e-06 9.469089888e-06 -5.591844277e-06
8.003145265e-06 1.60192729e-07 -1.8916007e-07
1.800806987e-05 2.603692457e-07 4.555571723e-07
-7.814863885e-06 1.948745523e-06 -7.814867905e-06
-7.934265355e-07 2.401233482e-07 -8.737382471e-07
-7.767562797e-06 1.143803581e-05 -7.767566792e-06
-9.152401913e-07 1.380899554e-06 -9.270710018e-07
-9.380652374e-06 2.339189615e-06 -9.380654294e-06
-6.907023101e-06 1.523684355e-06 -6.90702139e-06
-4.723811807e-07 7.154481444e-06 -9.261161658e-08
-1.449265358e-06 3.779032532e-06 4.099174352e-06
-2.255508192e-06 2.016037142e-06 -7.094670812e-07
-6.593005336e-06 5.846634625e-06 -2.112163019e-06
-4.009292828e-07 3.640704557e-07 -1.369586215e-07
-1.111141276e-05 2.420435662e-06 -4.961805782e-06
-4.648934096e-06 6.977266899e-08 -1.572499644e-06
-9.909103588e-07 2.079379159e-08 -5.875119487e-07
-1.728730129e-06 3.483270857e-07 -1.392659695e-06
-1.239995266e-06 2.47264097e-07 -1.001753312e-06
-6.907017165e-06 1.523692427e-06 -6.907019254e-06
-6.883002506e-07 1.523693371e-07 -6.931042469e-07
-3.939599152e-07 9.823723594e-08 -3.939600372e-07
-7.539174871e-07 3.157213089e-06 -4.944620209e-07
-4.293466316e-07 2.751570474e-06 -2.038600527e-07
-1.305355853e-06 2.210953325e-06 8.819975154e-07
-2.111768921e-06 2.830578017e-06 2.912123855e-07
