# .PCD v0.7 - Point Cloud Data file format
VERSION 0.7
FIELDS x y z
SIZE 4 4 4
TYPE F F F
COUNT 1 1 1
WIDTH 60
HEIGHT 1
VIEWPOINT 0 0 0 1 0 0 0
POINTS 60
DATA ascii
-0 1.478179772e-05 -0
-0 -1.30318065e-05 -0
-1.464870926e-05 5.663552976e-07 -1.088545742e-06
-0 3.686118872e-06 0
-0 1.572733331e-05 -0
-0 -3.257953643e-06 0
-1.25073725e-06 -5.926189117e-07 2.682211e-06
-1.412621e-06 -5.283531971e-07 1.41261925e-06
-1.886184419e-06 3.756297068e-08 -1.864930914e-06
0 1.266201804e-06 0
-4.2378595e-06 -5.772182586e-07 -0
-0 -1.954769603e-06 -0
-1.412621e-06 -4.801906892e-07 -1.41261925e-06
-1.464388525e-05 -6.457577778e-07 6.360166413e-07
-5.694843e-06 -3.830113765e-07 2.4733975e-07
-8.465695e-07 -2.384376871e-07 7.0398825e-07
-2.176893484e-06 -6.122830839e-08 1.810255902e-06
0 -7.819083254e-06 -0
-3.818385849e-06 -2.523303796e-08 3.818376849e-06
-3.216182215e-06 -2.450448369e-07 6.897115533e-06
-0 3.32678669e-06 -0
4.932294531e-06 -1.873608539e-06 -0
-0 -2.100269506e-06 4.23786125e-06
-0 -1.954772832e-06 0
1.412621e-06 -6.848213442e-07 1.41261925e-06
8.78822e-07 -9.269667078e-07 3.2797905e-06
-2.366231026e-06 -7.104387565e-08 -3.379338751e-06
-9.2020075e-07 -2.113353075e-07 -1.314187e-06
-1.108017246e-06 8.724762441e-09 -1.468942976e-05
3.818385849e-06 -1.282519238e-07 -3.818381349e-06
-0 1.723932584e-06 -0
2.821685127e-06 1.793166728e-07 5.901728811e-06
5.487510767e-06 1.538820242e-07 2.623638075e-06
-0 1.712034049e-06 -0
3.494075276e-06 -1.213001178e-07 2.446578544e-06
3.721722214e-06 -1.22487439e-07 2.540087942e-06
1.509706788e-06 -3.946037863e-07 9.064056249e-07
1.35880675e-06 -3.85844385e-07 9.51447e-07
-3.48166e-07 -2.832877569e-07 -5.233074e-06
-8.95284199e-07 -7.471897606e-08 -1.345647899e-05
3.632450307e-06 -1.220083611e-07 -3.632454807e-06
5.192782627e-06 -1.808039516e-07 -1.795283211e-06
3.525320728e-06 -6.737988053e-07 -7.767599392e-07
7.674172222e-07 -2.489922825e-07 -4.288286612e-08
3.437187737e-06 -3.44346085e-07 -8.103167962e-07
2.443095543e-07 1.331440223e-07 4.297019455e-06
-1.361029802e-06 1.727823574e-07 5.739206775e-06
-0 3.58049944e-07 -0
5.143924382e-07 3.268962297e-08 1.075880052e-06
1.376532043e-06 -1.618655562e-07 5.137259555e-06
3.689040212e-07 1.804204728e-08 2.220609267e-06
0 -6.637362506e-07 -4.23786125e-06
0 -1.954772832e-06 -0
1.412621e-06 -4.42493164e-07 -1.41261925e-06
1.41261925e-06 -4.424915496e-07 -1.412621e-06
-0 3.678680267e-07 -0
3.269001107e-06 4.599083585e-08 -7.752351169e-07
4.038426542e-06 9.493038054e-08 2.524024489e-07
1.350169491e-06 8.338939964e-09 -1.376011521e-08
2.266656379e-06 7.445476776e-09 -6.367761252e-08
