# .PCD v0.7 - Point Cloud Data file format
VERSION 0.7
FIELDS x y z
SIZE 4 4 4
TYPE F F F
COUNT 1 1 1
WIDTH 43
HEIGHT 1
VIEWPOINT 0 0 0 1 0 0 0
POINTS 43
DATA ascii
-0.008801711723 -0.05469999835 0.008179591969
-0.01299999934 -0.02900000103 -2.958380207e-10
0.01299999841 -0.02900000103 -2.958380207e-10
-0.008198288269 -0.05469999835 0.031820409
-0.01961387135 -0.03992137313 0.04751389846
0.01299999841 -0.02900000103 0.04899999872
-0.02701389976 -0.03992137313 0.04011387378
-0.02194733359 -0.04193374887 0.04518043995
-0.02468043938 -0.04193374887 0.04244733229
-0.01106880046 -0.05494999886 0.028697934
-0.01070330571 -0.05494999886 0.03035477735
-0.009854777716 -0.05494999886 0.03120330535
-0.01050570793 -0.05469999835 0.008994290605
-0.02780593932 -0.03786904737 0.02132183313
-0.02701389976 -0.03992137313 0.02211387269
-0.01106880046 -0.05494999886 0.01069793291
-0.01032893173 -0.05494999886 0.009171067737
-0.008197932504 -0.05494999886 0.03156879917
-0.006671067793 -0.05494999886 0.03082893044
-0.01882183366 -0.03786904737 0.04830593988
-0.01299999934 -0.02900000103 0.04899999872
-0.008802066557 -0.05494999886 0.008431199938
-0.006963940803 -0.05469999835 0.008615412749
-0.005931199063 -0.05494999886 0.01130206697
-0.006296693347 -0.05494999886 0.009645221755
-0.005679592025 -0.05469999835 0.0113017112
-0.01132040843 -0.05469999835 0.01069828868
-0.01882183366 -0.0355309546 0.04830593988
-0.01961387135 -0.03347862884 0.04751389846
-0.01299999934 0.02900000103 0.04899999872
-0.02701389976 -0.03347862884 0.04011387378
-0.02780593932 -0.0355309546 0.03932183236
-0.02468043938 -0.03146624565 0.04244733229
-0.02194733359 -0.03146624565 0.04518043995
-0.006115412805 -0.05469999835 0.009463940747
-0.007145221811 -0.05494999886 0.008796693757
-0.005931199063 -0.05494999886 0.02930206619
-0.005679592025 -0.05469999835 0.02930171229
0.01299999841 0.02900000103 -2.958380207e-10
-0.01299999934 0.02900000103 -2.958380207e-10
0.01299999841 0.02900000103 0.04899999872
-0.02780593932 -0.0355309546 0.02132183313
-0.02780593932 -0.03786904737 0.03932183236
