# .PCD v0.7 - Point Cloud Data file format
VERSION 0.7
FIELDS x y z
SIZE 4 4 4
TYPE F F F
COUNT 1 1 1
WIDTH 40
HEIGHT 1
VIEWPOINT 0 0 0 1 0 0 0
POINTS 40
DATA ascii
-3.543682936e-05 -8.245090788e-07 -2.527230182e-06
-4.912743896e-06 -1.40562158e-06 -8.747664917e-06
-1.725384691e-05 2.480477255e-07 -9.381491454e-07
-1.411462225e-05 -3.640005157e-08 -8.361182921e-07
-9.040068142e-07 1.464997375e-07 -1.118322938e-05
-1.88961843e-06 -5.631847125e-07 -2.951492194e-05
-2.628907817e-06 -1.287170141e-06 -5.30276605e-05
-2.75124599e-07 -6.775275523e-06 -1.090953512e-07
-7.614416084e-06 -9.882878654e-07 -3.25691991e-07
4.756768655e-07 -4.153059001e-06 4.562221674e-06
-8.476200185e-07 -4.700337836e-07 -1.745262096e-05
1.21032742e-06 -1.443730074e-05 1.526107981e-06
2.656802047e-07 -3.234107083e-05 -7.624364239e-09
1.912949654e-06 3.384466867e-08 7.207728698e-06
-1.424782351e-05 3.22630131e-06 1.195055308e-06
-1.394563146e-06 7.411102112e-06 9.160435934e-06
5.645456879e-07 1.587761795e-05 9.558145265e-07
1.812423715e-05 4.533599471e-06 1.733876872e-05
6.04922226e-06 1.363844771e-06 5.787767829e-06
2.489875148e-06 2.188691103e-06 7.558816844e-06
1.569256355e-06 2.23273382e-06 5.561567725e-06
2.195468815e-06 -2.550611654e-06 6.23594566e-06
1.270700283e-06 -7.331649739e-07 3.771856967e-06
9.718210773e-06 -6.75003364e-06 9.718212795e-06
5.610472203e-06 -2.995930433e-07 5.626585062e-06
7.913595188e-07 3.673737303e-06 9.405497543e-07
4.645537408e-06 8.941888504e-06 4.601758648e-06
1.957162816e-07 1.14485838e-06 8.860195934e-07
-1.723477675e-07 -7.724201597e-08 -3.812588309e-06
5.44723206e-08 1.176776919e-07 -5.754744154e-06
7.766124295e-06 1.309171679e-05 7.158425448e-06
4.898909797e-06 8.278913126e-06 4.518105084e-06
9.483272157e-06 -7.766818524e-06 9.118789306e-06
1.87293865e-06 -1.425721092e-06 1.830679939e-06
5.59295741e-07 2.96679102e-08 3.607736528e-07
-6.395774253e-08 -5.933499961e-08 -1.776184285e-06
5.224742118e-07 4.988130706e-07 8.818321543e-07
3.992042869e-06 4.497322178e-06 3.992042869e-06
1.469126574e-05 5.119575319e-06 1.469126574e-05
8.263965437e-07 2.87980319e-07 8.263958627e-07
