# .PCD v0.7 - Point Cloud Data file format
VERSION 0.7
FIELDS x y z
SIZE 4 4 4
TYPE F F F
COUNT 1 1 1
WIDTH 74
HEIGHT 1
VIEWPOINT 0 0 0 1 0 0 0
POINTS 74
DATA ascii
-0 -3.109856127e-05 -0
-0 -5.802905322e-06 -0
0 -3.151208656e-05 -0
-0 -5.943986153e-06 0
-1.112658416e-05 -1.016905306e-06 -3.842962395e-08
0 -6.315504139e-06 -0
-0 -5.609137793e-06 -0
-6.131692397e-07 8.724585566e-08 1.657962984e-06
-2.221301879e-07 -8.629374324e-07 1.13929991e-05
-3.580312404e-06 5.919075332e-07 7.446622409e-06
-5.854914019e-08 3.201124056e-06 2.21988907e-07
1.964639993e-06 3.821962144e-07 5.784809401e-06
9.73139965e-09 7.052471416e-07 1.898666754e-07
-5.373279757e-06 -8.181937329e-08 -4.637219856e-07
-1.336007672e-06 -0 -1.826793654e-07
-7.396586038e-06 5.400322606e-07 3.55698254e-06
-1.580023245e-06 8.45140755e-08 6.318665046e-07
-3.97540538e-08 2.712248558e-07 1.505659668e-08
-4.508097669e-06 -1.541541778e-07 -4.500591189e-06
-1.965175112e-06 9.937945061e-08 -7.042419619e-07
-4.122420305e-06 1.743724711e-07 -1.434886939e-06
-3.762496925e-06 4.230411059e-07 -6.016439544e-06
-1.364754504e-07 2.235891714e-07 -1.94907028e-07
-3.727385756e-06 2.506280477e-07 -4.636966836e-06
-1.119050547e-06 8.403238045e-08 -1.370450886e-06
-4.266622727e-08 8.249047042e-07 -5.881026265e-08
2.232425907e-07 2.070300905e-05 -2.614051653e-07
4.906824814e-07 -0 -2.830445661e-07
1.151730844e-05 -7.143048852e-07 -2.019804631e-07
4.486875909e-06 2.472370708e-08 4.494138138e-06
4.196239917e-07 3.676971813e-08 7.129683043e-07
2.481418325e-06 1.435405812e-07 2.192769492e-06
-7.886258052e-07 7.842349475e-08 -1.442299188e-06
-5.988293194e-08 -1.254637397e-06 -1.099448243e-05
4.352477913e-06 1.194456189e-07 -4.592638593e-06
5.854423563e-06 1.984146937e-07 -6.076197781e-06
-7.020090187e-07 5.950034218e-08 1.038063583e-06
-4.500490765e-06 -6.511284286e-08 4.264416138e-06
9.240723676e-08 1.360216803e-07 3.073732437e-06
1.006231881e-07 1.4398915e-07 2.951921886e-06
4.082702005e-07 7.744720647e-08 1.492854452e-06
1.669457196e-07 -1.508484058e-07 5.493534339e-06
7.665130158e-06 5.699002433e-07 6.277705273e-06
6.870301348e-07 3.709041338e-06 1.576445668e-07
4.092207385e-07 2.460006094e-07 3.585869752e-09
-1.178127856e-06 -0 -1.22008744e-07
-2.973919288e-06 -2.469224433e-08 -2.566536305e-07
-1.586553771e-06 7.145033903e-08 -3.561376008e-09
-2.488947636e-07 2.421378413e-07 -6.66912187e-08
-1.546219388e-07 1.158046137e-06 5.57595607e-08
-8.739317189e-08 4.415474079e-06 -5.935794345e-08
-2.986277334e-07 3.031046406e-05 -1.31644453e-07
-1.971132601e-07 1.389737084e-05 4.52037087e-08
1.393198929e-07 4.071893083e-06 -2.089034525e-07
2.182749322e-06 1.641971175e-07 -2.360483121e-06
4.314434793e-07 3.998488496e-08 -6.749152384e-07
9.849451115e-09 1.061954268e-07 -1.125801931e-07
1.207595596e-07 1.612420249e-07 -3.432255357e-06
9.0185279e-08 9.772059086e-07 -2.98649259e-07
2.711725088e-06 2.96515134e-07 -4.713443169e-06
-1.32031871e-06 1.509727832e-09 1.192042536e-06
-1.024978528e-06 5.950039418e-08 6.241546139e-07
-6.623941834e-07 4.235644509e-08 5.885458979e-07
-7.504543693e-07 4.490626719e-08 6.805722433e-07
9.083604342e-06 -2.842124772e-07 7.091795192e-08
7.282582076e-07 7.384617172e-09 1.844566114e-07
4.657333802e-06 4.044955931e-08 5.606564223e-08
4.618794238e-06 -0 3.606007212e-08
7.174823141e-08 9.534868865e-08 -7.174823141e-08
1.192808505e-07 3.766489628e-07 -8.473983615e-08
3.80059626e-08 3.641962957e-07 -3.80059626e-08
2.186299373e-07 -0 -3.131347763e-06
4.366493426e-07 -2.423388214e-07 -6.188935825e-06
2.561810124e-07 -0 -1.17516985e-06
