# .PCD v0.7 - Point Cloud Data file format
VERSION 0.7
FIELDS x y z
SIZE 4 4 4
TYPE F F F
COUNT 1 1 1
WIDTH 46
HEIGHT 1
VIEWPOINT 0 0 0 1 0 0 0
POINTS 46
DATA ascii
1.196130436e-07 -2.940350594e-05 2.580776882e-07
-3.343829188e-06 -0 1.484305469e-06
-7.31296072e-07 6.105160863e-08 1.746208503e-06
-7.71993044e-07 -0 1.655545811e-06
-2.480202825e-08 -1.951098377e-06 5.318816575e-08
3.354912847e-09 -1.107507365e-05 1.919533792e-07
-2.621847905e-07 -3.774556199e-06 -1.197985643e-07
5.213562294e-08 2.423645526e-07 -6.343957531e-06
-1.08809885e-07 6.556904369e-07 1.863012333e-07
2.148375908e-07 -1.517538026e-05 -6.58045962e-09
1.483975941e-07 -1.718847935e-05 1.039090328e-07
4.375876252e-06 -0 -1.340327681e-07
-1.821173919e-08 1.549909729e-07 5.290294932e-06
-7.263520989e-08 3.75985995e-06 4.423575617e-07
5.102110204e-08 -0 8.330776662e-07
1.126407933e-07 -9.681968258e-08 6.444811504e-06
-4.548521915e-08 -4.540015908e-07 -1.74769223e-08
-3.127511182e-07 2.383011996e-06 -1.786980644e-07
-2.834352539e-06 4.02190068e-08 -8.59995015e-07
-2.995672495e-06 1.561723368e-07 -8.132594088e-07
-1.476676698e-06 4.708961556e-08 -2.296658798e-06
-1.608079375e-06 1.452141187e-07 -2.653154988e-06
4.094586197e-07 9.439668475e-06 -8.06541714e-07
1.144588926e-07 2.030948366e-05 2.73673673e-07
-4.313181833e-09 3.137821313e-05 3.864738366e-09
2.322397645e-06 -0 -2.322399145e-06
2.32445072e-06 7.6546098e-09 -2.331868239e-06
1.324584386e-07 9.373888272e-09 -5.569702066e-06
1.140202067e-07 -5.597911482e-06 -1.140202804e-07
-1.518168019e-07 1.83031556e-06 -7.251665361e-08
-1.347018965e-07 6.416377678e-06 -3.218654365e-08
-1.643397183e-06 8.170066155e-08 -1.409628579e-07
-1.803750165e-06 7.62774885e-08 -1.334298149e-07
-2.747068858e-07 2.848264544e-07 1.280978709e-07
-3.804836241e-06 1.983299639e-07 1.551203168e-06
1.266168527e-07 8.894207207e-07 -1.266166958e-07
3.003635852e-09 3.99320913e-09 -3.003632131e-09
1.224949339e-07 8.22629505e-07 -1.191707834e-07
2.461862686e-07 1.099156383e-06 2.064757076e-07
2.14437551e-07 3.639614819e-06 1.389519158e-07
3.709065596e-07 1.961055773e-07 -8.864513412e-09
4.557343714e-06 1.890967624e-07 -4.236042451e-08
2.389276665e-06 1.443810112e-07 1.524911345e-06
4.754543738e-08 5.454184262e-08 3.329162493e-08
3.022606545e-06 5.315249992e-13 2.116450233e-06
8.287621575e-07 -0 5.803046606e-07
