# .PCD v0.7 - Point Cloud Data file format
VERSION 0.7
FIELDS x y z
SIZE 4 4 4
TYPE F F F
COUNT 1 1 1
WIDTH 98
HEIGHT 1
VIEWPOINT 0 0 0 1 0 0 0
POINTS 98
DATA ascii
-5.718569184e-07 -6.805467112e-05 -0
-5.718569184e-07 -6.805467112e-05 0
1.580118727e-05 -0.0001231506004 4.2870184e-05
-1.715570676e-06 -0.000204164004 5.540232122e-05
6.893547535e-05 -8.722039599e-05 -0
-5.641568249e-05 -0 -6.723431028e-05
-1.646294084e-05 -2.083612245e-05 -0
-0.0001067144908 -0 -0
-1.015899332e-06 -0.0001208985897 -9.030537605e-05
3.223235945e-05 -7.45117479e-05 -3.394034701e-05
-0.0001404027819 3.212209315e-05 -1.355025657e-06
-5.21630299e-05 1.129234462e-05 -3.373023526e-06
-5.83416274e-05 1.756903805e-06 -6.877422498e-05
-0.0005756634177 0.0001165637824 -0
-6.419780072e-05 1.326956105e-05 7.851449819e-07
-0.0001256723345 2.624191981e-05 -3.610525035e-07
-0.000372066794 7.653809378e-05 -1.068811377e-06
2.392351032e-05 -7.973431705e-05 3.18937255e-05
0.0001190053461 -0.0001676586508 6.706345753e-05
-2.635936103e-05 1.283042898e-05 3.355801698e-05
-3.460328149e-05 -4.379522574e-05 -7.048643476e-05
-2.735412624e-06 -3.119011007e-06 -5.346519968e-06
3.067913749e-07 -9.263100846e-14 -3.06791615e-07
-2.667862363e-05 -0 0
-4.938882024e-05 -6.250836447e-05 1.053223551e-05
-1.646294084e-05 -2.083612245e-05 0
2.36224219e-05 -2.764344541e-05 2.173642504e-07
0.0001843390404 -0.0002296820005 2.019067705e-06
1.239234273e-05 -1.562966971e-05 1.086728996e-06
2.714641716e-05 -1.057282372e-05 2.497897616e-07
7.208604941e-05 -7.378230434e-05 6.115350561e-05
2.325928803e-05 -2.578762995e-05 2.086729038e-05
2.397849943e-05 -1.759232475e-05 2.160657623e-05
0.0001192647555 1.951170857e-05 0.0001320661084
9.857900906e-05 2.320725484e-05 0.0001039953891
1.126173759e-07 6.874507357e-06 5.384365409e-08
1.409669217e-06 9.482756679e-05 -2.55568301e-09
0.0002711437218 0.0002901901779 -4.915744735e-07
-7.12946526e-09 1.769766493e-06 1.402926842e-07
4.373813109e-08 3.162197943e-06 9.148120492e-08
3.929410086e-06 1.67814121e-06 8.218622065e-06
1.515121484e-05 9.035417879e-06 5.769064318e-05
-2.50746806e-06 9.733642618e-06 4.934162829e-05
-2.762878745e-06 -5.188031361e-05 -4.197891362e-05
1.305000857e-06 -5.407696008e-12 -1.305007845e-06
2.638777589e-05 -3.087953238e-05 2.428110406e-07
2.503899299e-05 -1.36230897e-05 -6.464570916e-09
5.183167855e-06 -8.636360002e-12 -5.183166562e-06
8.076013647e-05 9.566305547e-07 2.099454235e-08
3.345072565e-06 -6.386830021e-13 -3.345062388e-06
5.188222263e-06 5.515499992e-14 -5.188215214e-06
2.515698462e-05 2.745279983e-06 2.78729198e-05
1.982209023e-05 -2.361015907e-07 2.924569106e-05
3.623311829e-05 -5.083781119e-07 4.140783246e-05
1.193921064e-05 2.059140268e-07 1.364180681e-05
6.552247582e-06 1.083971529e-06 1.015219082e-05
2.215148889e-05 1.521119673e-05 1.059087993e-05
0.0002778327004 0.0002922012765 1.976105249e-06
2.345260724e-05 1.367768946e-05 -2.688146711e-08
4.066294352e-05 4.494277959e-05 -1.904305349e-06
-1.293335326e-06 1.164059628e-05 6.181285472e-05
0 -0 2.367253821e-07
-2.171954854e-06 1.536703036e-05 8.108461927e-05
-2.123539674e-07 -3.913103079e-07 -5.711676365e-07
-8.678228774e-06 -1.388156678e-05 -2.001246759e-05
-3.529451285e-06 -6.665204304e-06 -8.920706358e-06
3.408450248e-06 -1.349476729e-06 3.408446026e-06
5.527689462e-05 -2.791823049e-06 6.120041718e-05
2.709721579e-05 8.226993441e-07 2.949798093e-05
2.897433391e-06 8.423736329e-08 2.897429801e-06
1.351913522e-05 1.359380043e-06 2.345091245e-05
7.605110942e-06 2.978460093e-06 2.178627847e-05
1.066864024e-05 1.771389394e-06 1.662547961e-05
1.302652814e-05 3.582089134e-06 1.3026512e-05
2.535427108e-05 1.536411582e-05 1.445709436e-05
2.897433391e-06 8.423736329e-08 2.897429801e-06
2.469016164e-05 9.616175364e-06 2.271896771e-07
6.575410144e-05 9.566489316e-07 5.576564096e-08
-3.638881719e-06 5.029287751e-05 -4.824211682e-05
-1.351274842e-05 1.42770762e-05 -2.348185755e-05
-1.107609076e-05 3.161909519e-06 -1.09512855e-05
-0.000420707128 0.0001205033819 -0.0004228281758
-1.849994428e-08 7.042614379e-05 -2.452611935e-07
-3.149256637e-08 8.707663907e-06 -3.113770849e-08
1.664952091e-05 2.155174998e-05 -3.948390615e-06
9.623245367e-08 1.242254941e-05 -2.282127629e-08
6.375345302e-08 2.183463211e-05 -6.375337789e-08
3.835673962e-06 9.190232002e-12 -3.835670591e-06
1.083159591e-05 1.04355999e-13 -1.083160346e-05
2.638711902e-05 -1.946579999e-12 -2.638713218e-05
3.229817722e-05 -0 -3.229817722e-05
5.145655099e-05 -4.650270999e-12 -5.145655972e-05
1.083254526e-05 2.181325647e-05 -1.08325325e-05
4.055082887e-05 7.48300844e-05 -3.456225029e-05
2.321487104e-06 3.33421103e-05 -2.902817329e-05
9.806038606e-07 2.901874797e-05 -2.60063901e-05
9.535871234e-07 4.363754003e-12 -9.535925762e-07
1.22448824e-06 6.149397997e-12 -1.224495997e-06
