# .PCD v0.7 - Point Cloud Data file format
VERSION 0.7
FIELDS x y z
SIZE 4 4 4
TYPE F F F
COUNT 1 1 1
WIDTH 131
HEIGHT 1
VIEWPOINT 0 0 0 1 0 0 0
POINTS 131
DATA ascii
0.04940000176 -0.06899992377 0.03099998459
4.44026482e-05 -0.05329992622 0.0664993301
-0.03060000017 -0.06899992377 0.03099998459
-0.00079273968 -0.05329992622 0.06627340615
-0.01400000136 -0.02899992466 0.08100000024
0.01400000136 -0.02899992466 0.08100000024
0.05440000072 -0.06899992377 0.02599998564
-0.02880015224 0.06819992512 -0.2598000169
-0.02880015224 0.05699991807 -0.2709999979
-0.03060000017 0.01200007461 -0.2709999979
-0.02880015224 0.06899992377 -0.2590000033
-0.01680015028 0.06899992377 -0.2709999979
0.05119984969 0.06819992512 -0.2709999979
0.05440000072 -0.06899992377 -0.2660000026
0.04940000176 -0.06899992377 -0.2709999979
0.05619984493 0.06819992512 -0.2660000026
0.00065040146 -0.05329992622 0.06635164469
-0.01400000136 0.02900007181 0.08100000024
-0.02880015224 0.06899992377 0.03099998459
-0.03060000017 0.01200007461 0.03099998459
-0.03060000017 -0.06819992512 -0.2598000169
-0.01860000007 -0.06899992377 -0.2709999979
-0.03060000017 -0.05699992552 -0.2709999979
-0.02800015174 0.06899992377 -0.2598000169
0.05619984493 0.06819992512 0.02599998564
-0.000206262659 -0.05329992622 0.06648574769
-0.0003298637166 -0.05329992622 0.06646327674
-0.02979999967 -0.06899992377 -0.2598000169
-0.03060000017 -0.06899992377 -0.2590000033
-0.00249933172 5.787960254e-05 -0.2718000114
-0.002495403169 -0.0001514618052 -0.2718000114
0.002499559894 4.698006887e-05 -0.2718000114
0.05119984969 0.06899992377 -0.2709999979
-8.121484279e-05 -0.05329992622 0.06649778038
-0.0006834035157 -0.05329992622 0.06633527577
-0.0005692737759 -0.05329992622 0.06638776511
-0.0004511509615 -0.05329992622 0.06643053144
0.00016970867 -0.05329992622 0.06649036705
0.0005350165884 -0.05329992622 0.06640133262
0.0004158789816 -0.05329992622 0.06644119322
-0.001793030649 0.05150007457 0.06740520149
-0.00158547936 0.05150007457 0.06754680723
-5.450945537e-06 -0.002499920316 -0.2718000114
-9.92426867e-05 0.002498103306 -0.2718000114
0.05119984969 0.06899992377 0.03099998459
0.05619984493 0.06899992377 0.02599998564
0.01400000136 0.02900007181 0.08100000024
0.001300802804 0.05150007457 0.06770330667
0.0002938243269 -0.05329992622 0.06647092849
-0.001715337276 -0.001818611869 -0.2718000114
-0.00178236363 0.001753122662 -0.2718000114
0.0005876485957 0.05150007457 0.06794187427
0.00033941734 0.05150007457 0.06798072904
0.0008317579632 0.05150007457 0.06788238883
0.001070033177 0.05150007457 0.06780267507
-0.0004125253181 0.05150007457 0.06797149777
-0.0006597274332 0.05150007457 0.06792655587
-0.0001624297001 0.05150007457 0.0679955855
8.880527457e-05 0.05150007457 0.06799867749
-0.001366807031 0.05150007457 0.06767053902
-0.001138547552 0.05150007457 0.0677755326
-0.0009023019229 0.05150007457 0.06786110252
0.002494718647 -0.0001623422286 -0.2718000114
0.002472378546 -0.0003705252602 -0.2718000114
0.002432696754 -0.0005761088687 -0.2718000114
0.00237595127 -0.0007776509156 -0.2718000114
0.001988024451 -0.001515762182 -0.2718000114
0.001854210394 -0.001676799497 -0.2718000114
0.002107894048 -0.001344092307 -0.2718000114
0.002302540001 -0.0009737378568 -0.2718000114
0.0004115462361 -0.002465819474 -0.2718000114
0.0006164435763 -0.002422733931 -0.2718000114
0.0008170169313 -0.002362653846 -0.2718000114
0.001011859509 -0.002286001341 -0.2718000114
0.001707390067 -0.001826074906 -0.2718000114
0.00154859398 -0.001962541137 -0.2718000114
0.001199604594 -0.00219331379 -0.2718000114
-0.0002146259358 -0.002490696264 -0.2718000114
-0.0004222955031 -0.002464001067 -0.2718000114
-0.0006270029116 -0.002420022851 -0.2718000114
-0.0008273123531 -0.002359068953 -0.2718000114
-0.001557137701 -0.001955769258 -0.2718000114
-0.001388015691 -0.002079207683 -0.2718000114
-0.001209157985 -0.002188061364 -0.2718000114
-0.002473971341 -0.0003597402829 -0.2718000114
-0.002435186179 -0.0005654949346 -0.2718000114
-0.002379320096 -0.0007672825595 -0.2718000114
-0.002306764713 -0.0009636877221 -0.2718000114
-0.001861505094 -0.001668697922 -0.2718000114
-0.002218028996 -0.001153332763 -0.2718000114
-0.002113735536 -0.001334887464 -0.2718000114
0.002456733724 0.0004631716874 -0.2718000114
0.002409366658 0.000667121727 -0.2718000114
0.002345099347 0.0008663928602 -0.2718000114
0.002264383249 0.001059587463 -0.2718000114
0.001929753111 0.00158943003 -0.2718000114
0.001789991278 0.001745333546 -0.2718000114
0.002055979101 0.001422378235 -0.2718000114
0.00216778391 0.001245350228 -0.2718000114
0.000110135079 0.002497646725 -0.2718000114
0.0003187403199 0.002479671501 -0.2718000114
0.0007277961122 0.002391791437 -0.2718000114
0.0009253774188 0.002322503133 -0.2718000114
0.001637673937 0.001888995292 -0.2718000114
0.001473869546 0.002019407693 -0.2718000114
0.00129972701 0.002135655843 -0.2718000114
-0.0003079243179 0.002481037751 -0.2718000114
-0.0009152410203 0.002326516435 -0.2718000114
-0.001106702839 0.002241771901 -0.2718000114
-0.0007173594786 0.002394942567 -0.2718000114
-0.001629421255 0.001896118862 -0.2718000114
-0.001465049689 0.002025815658 -0.2718000114
-0.00129040191 0.002141303383 -0.2718000114
-0.002485729055 0.0002668155648 -0.2718000114
-0.002341299318 0.0008766110404 -0.2718000114
-0.002259741304 0.001069451799 -0.2718000114
-0.002406434854 0.0006776220398 -0.2718000114
-0.001922803931 0.001597830094 -0.2718000114
-0.002049757168 0.001431330456 -0.2718000114
-0.002162332879 0.001254791627 -0.2718000114
0.002212978201 -0.001162994071 -0.2718000114
0.0002037622762 -0.002491608495 -0.2718000114
0.001378935413 -0.002085240558 -0.2718000114
-0.00102181884 -0.002281567082 -0.2718000114
-0.001994615654 -0.001507078414 -0.2718000114
0.002486868529 0.0002559733693 -0.2718000114
0.0005251098191 0.002444303595 -0.2718000114
0.001116467756 0.002236924134 -0.2718000114
-0.0005144461174 0.002446570201 -0.2718000114
-0.002454690868 0.000473880471 -0.2718000114
0.05619984493 0.06899992377 -0.2660000026
