# .PCD v0.7 - Point Cloud Data file format
VERSION 0.7
FIELDS x y z
SIZE 4 4 4
TYPE F F F
COUNT 1 1 1
WIDTH 199
HEIGHT 1
VIEWPOINT 0 0 0 1 0 0 0
POINTS 199
DATA ascii
-0.5847882628 -0.02800000273 0.07184430212
-0.2870000005 -0.02800000273 -0.0254999958
-0.150000006 -0.0540000014 -0.02549999766
-0.5859069824 -0.02800000273 0.07231013477
-0.5939950943 -0.02800000273 0.08500000089
-0.150000006 -0.0540000014 0.01400000043
-0.150000006 0.01899999939 -0.03150000051
-0.2870000005 0.02800000273 -0.0254999958
-0.150000006 0.0549999997 -0.02549999766
-0.150000006 0.0549999997 0.01400000043
-0.4379999936 0.027999999 0.1010000035
-0.5799999833 0.02800000273 0.09899999946
-5.182921759e-15 -0.0540000014 0.01400000043
0.002910763724 -0.0540000014 0.01369406842
-0.1875 -0.02800000273 0.1010000035
-0.5843262672 0.02800000273 0.07168520987
-0.5843262672 0.02199999988 0.07168520987
-0.5937873125 0.02800000273 0.08256893605
-0.5936098099 0.02800000273 0.08172551543
0.002910763724 0.0549999997 0.01369406842
-1.707101599e-16 0.0549999997 0.01400000043
-0.1875 0.027999999 0.1010000035
0.005694312975 0.0549999997 0.01278963778
0.005694312975 -0.0540000014 0.01278963778
-0.5939555764 0.02199999988 0.08390856534
-0.5939555764 0.02349994332 0.08390855789
-0.5939431787 -0.02650005743 0.08377067
-0.5939999819 0.02199999988 0.08500000089
-0.5939555764 0.02199999988 0.08609143645
-0.5939431787 -0.02349994332 0.08622932434
-0.5939555764 0.02650005743 0.0860914439
-0.5853505135 0.02199999988 0.07206471264
-0.5880362391 -0.02800000273 0.07353949547
-0.588999033 -0.02800000273 0.07427538186
-0.5937873125 -0.02800000273 0.08256893605
-0.5935227871 -0.02800000273 0.0813863501
-0.5926818848 -0.02800000273 0.07907597721
-0.5921243429 -0.02800000273 0.07800000161
-0.150000006 -0.01899999939 -0.03150000051
-0.4379999936 -0.02800000273 0.1010000035
-0.5799999833 -0.02800000273 0.09899999946
-0.5812105536 -0.02800000273 0.09894482046
-0.5810914636 0.02199999988 0.098955594
-0.5824302435 -0.02800000273 0.09878250211
-0.5812105536 0.02800000273 0.09894482046
-0.5821895599 0.02800000273 0.09882448614
-0.5832744837 0.02800000273 0.09860982746
-0.5836318135 0.02800000273 0.09851785749
-0.5863543749 0.02800000273 0.09747122973
-0.5869975686 0.02800000273 0.09712020308
-0.5843262672 0.02800000273 0.09831479192
-0.5913262367 0.02800000273 0.0932289958
-0.5907209516 0.02800000273 0.09399593621
-0.5906488299 0.02800000273 0.09408591688
-0.5898908973 0.02800000273 0.09490424395
-0.5873198509 0.02800000273 0.0969318226
-0.588999033 0.02800000273 0.09572461993
-0.5882290006 0.02800000273 0.09632623941
-0.5938245058 0.02500000037 0.08281042427
-0.5939999819 0.02800000273 0.08500000089
-0.5853505135 0.02800000273 0.07206471264
-0.5859069824 0.02800000273 0.07231013477
-0.5898908973 0.02800000273 0.07509575784
-0.5906488299 0.02800000273 0.07591407746
-0.5869975686 -0.02800000273 0.07287980616
-0.5882290006 0.02199999988 0.07367376238
-0.5914713144 -0.02800000273 0.07697919756
-0.5907209516 -0.02800000273 0.07600407302
-0.5898908973 -0.02800000273 0.07509575784
-0.593943119 -0.02800000273 0.0837706849
-0.5936098099 0.02199999988 0.08172551543
-0.5931511521 -0.02800000273 0.08021339774
-0.592471242 0.02199999988 0.07864559442
-0.5898908973 -0.02800000273 0.09490424395
-0.5907209516 -0.02800000273 0.09399593621
-0.588999033 -0.02800000273 0.09572461993
-0.5880362391 -0.02800000273 0.09646050632
-0.5869975686 -0.02800000273 0.09712020308
-0.5836318135 -0.02800000273 0.09851785749
-0.5847882628 -0.02800000273 0.09815569967
-0.5843262672 0.02199999988 0.09831479192
-0.5859069824 -0.02800000273 0.09768986702
-0.5935227871 -0.02800000273 0.08861366659
-0.5931511521 -0.02800000273 0.08978661895
-0.5937873125 -0.02800000273 0.08743106574
-0.593943119 -0.02800000273 0.08622931689
-0.5938245058 0.02500000037 0.08718959242
-0.5914713144 -0.02800000273 0.09302080423
-0.5921243429 -0.02800000273 0.09200000018
-0.5926818848 -0.02800000273 0.09092402458
-0.5821895599 0.02199999988 0.09882448614
-0.5810914636 0.02800000273 0.098955594
-0.5824302435 0.02800000273 0.09878250211
-0.5859069824 0.02800000273 0.09768986702
-0.5853505135 0.02800000273 0.09793528914
-0.5847882628 0.02800000273 0.09815569967
-0.5880362391 0.02800000273 0.09646050632
-0.5929353237 0.02800000273 0.09035054594
-0.5931511521 0.02800000273 0.08978661895
-0.5926818848 0.02800000273 0.09092402458
-0.5921243429 0.02800000273 0.09200000018
-0.5919318199 0.02800000273 0.09231988341
-0.5936098099 0.02800000273 0.08827447891
-0.5937873125 0.02800000273 0.08743106574
-0.5935227871 0.02800000273 0.08861366659
-0.5933147669 0.02800000273 0.08932624012
-0.5939555764 0.02800000273 0.08390856534
-0.5939555764 0.02800000273 0.08609143645
-0.5929353237 0.02800000273 0.0796494633
-0.5931511521 0.02800000273 0.08021339774
-0.5933147669 0.02800000273 0.08067376167
-0.5921243429 0.02800000273 0.07800000161
-0.592471242 0.02800000273 0.07864559442
-0.5907209516 0.02800000273 0.07600407302
-0.5847882628 0.02800000273 0.07184430212
-0.588999033 0.02800000273 0.07427538186
-0.5882290006 0.02800000273 0.07367376238
-0.5880362391 0.02800000273 0.07353949547
-0.5873198509 0.02800000273 0.07306817919
-0.5873198509 0.02199999988 0.07306817919
-0.5863544345 0.02500000037 0.0725287497
-0.5906488299 0.02199999988 0.07591407746
-0.5938244462 0.02199999988 0.08281042427
-0.592471242 0.02500000037 0.07864557952
-0.5906488299 0.02199999988 0.09408591688
-0.5890859365 0.02800000273 0.09564883262
-0.5882290006 0.02199999988 0.09632623941
-0.5873198509 0.02199999988 0.0969318226
-0.5832744837 0.02199999988 0.09860982746
-0.5863543749 0.02199999988 0.09747122973
-0.5853505135 0.02199999988 0.09793528914
-0.5938244462 0.02199999988 0.08718957007
-0.5913262367 0.02199999988 0.0932289958
-0.5919318199 0.02199999988 0.09231988341
-0.5914713144 0.02800000273 0.09302080423
-0.5812105536 -0.02349994332 0.09894483536
-0.5824302435 -0.02500000037 0.09878253937
-0.5926818848 -0.02349994332 0.09092404693
-0.5929353237 0.02199999988 0.09035054594
-0.5936098099 0.02199999988 0.08827447891
-0.5931511521 -0.02500000037 0.0897866264
-0.5933147669 0.02199999988 0.08932624012
-0.5938244462 0.02800000273 0.08281042427
-0.5938244462 0.02800000273 0.08718957007
-0.5926818848 0.02800000273 0.07907597721
-0.5929353237 0.02199999988 0.0796494633
-0.5935227871 0.02800000273 0.0813863501
-0.5933147669 0.02199999988 0.08067376167
-0.5919318199 0.02800000273 0.07768012583
-0.5914713144 0.02800000273 0.07697919756
-0.5913262367 0.02800000273 0.07677100599
-0.5890859365 0.02800000273 0.07435116917
-0.5873199105 0.02349994332 0.07306814939
-0.5863543749 0.02199999988 0.07252877206
-0.5863543749 0.02800000273 0.07252877206
-0.5890859365 0.02199999988 0.09564883262
-0.5873199105 0.02650005743 0.0969318524
-0.5836318731 -0.02650005743 0.09851789474
-0.5863544345 0.02500000037 0.09747125953
-0.5919318199 0.02349994332 0.09231989831
-0.592471242 0.02500000037 0.09135442227
-0.5936098099 0.02349994332 0.08827450126
-0.593943119 0.02800000273 0.0837706849
-0.593943119 0.02800000273 0.08622931689
-0.5926818848 -0.02650005743 0.07907596231
-0.5931511521 -0.02500000037 0.08021337539
-0.5935227871 -0.02349994332 0.08138633519
-0.5919318199 0.02199999988 0.07768012583
-0.5913262367 0.02199999988 0.07677100599
-0.5890859365 0.02199999988 0.07435116917
-0.5869975686 0.02800000273 0.07287980616
-0.5832744837 0.02349994332 0.09860984236
-0.592471242 0.02199999988 0.09135440737
-0.592471242 0.02800000273 0.09135440737
-0.5919318199 0.02650005743 0.07768010348
-0.01499999966 0.0549999997 -0.02549999766
-0.1439999938 0.01899999939 -0.03150000051
0.008228993043 -0.0540000014 -0.01132623665
-0.01499999966 -0.0540000014 -0.02549999766
0.008228993043 0.0549999997 -0.01132623665
-0.1439999938 -0.01899999939 -0.03150000051
0.01331479102 -0.0540000014 -0.0043262369
0.01392330602 0.0549999997 -0.001463397522
0.01331479102 0.0549999997 -0.0043262369
0.01392330602 -0.0540000014 -0.001463397522
0.01212435588 -0.0540000014 0.007000000682
0.010404028 0.0549999997 0.009367829189
0.01212435588 0.0549999997 0.007000000682
0.010404028 -0.0540000014 0.009367829189
0.01331479102 0.0549999997 0.004326238763
0.01331479102 -0.0540000014 0.004326238763
0.01392330602 -0.0540000014 0.001463399502
0.01392330602 0.0549999997 0.001463399502
0.01212435588 0.0549999997 -0.006999998819
0.01212435588 -0.0540000014 -0.006999998819
0.010404028 -0.0540000014 -0.009367827326
0.010404028 0.0549999997 -0.009367827326
0.008228993043 -0.0540000014 0.01132623851
0.008228993043 0.0549999997 0.01132623851
