# .PCD v0.7 - Point Cloud Data file format
VERSION 0.7
FIELDS x y z
SIZE 4 4 4
TYPE F F F
COUNT 1 1 1
WIDTH 52
HEIGHT 1
VIEWPOINT 0 0 0 1 0 0 0
POINTS 52
DATA ascii
-0.00166624309 -0 -5.418454747e-05
-0.0008568583689 -0 -0
-1.620367951e-05 -5.386189566e-05 -8.928899945e-05
-8.332672751e-06 -2.769824903e-05 -0
-0.001315604083 -0 -0
0 -0.0006888274052 -0.001153600222
4.782791576e-05 0.0008417133419 -0.0002817831408
-0.0002631910965 0.0001058035717 -0
-0.0001230048604 0 -3.9999942e-06
-0 0 -0.000139999982
-8.332672751e-06 -2.769824903e-05 0
-0 -0 -0.000139999982
0.00059201952 -0 -0.0001450961
0.0001480048504 -0 -3.627401775e-05
4.59056727e-05 -4.813478405e-05 -0
0.0004569300722 -0.0006329258079 -0.0005657243697
7.803970785e-05 -0.0001554613798 -0
0.0001290397227 -0.0002570575145 -0
-0.0003241577249 0.0001923461957 -0.0001681089803
-1.787360325e-05 4.043173133e-05 -2.05401017e-05
-0.0005808183951 0.0003170885798 -0.0003048930697
-0 5.04271916e-05 -0.0007065518825
0.00011999972 -0 -0
4.063844845e-05 -4.261179121e-05 0.0002619770006
6.908541927e-05 -0.0001376237161 0.0006468622885
-8.117371776e-05 3.681281378e-05 3.927348823e-06
1.458475352e-05 0.0002555430267 0.0002425943459
1.043515765e-05 0.0001836461255 -2.333885528e-07
1.038327577e-05 0.0001819279095 -0
0.001261257685 -0.0002147493087 -0.0001712761738
0.0003259965808 -5.550613581e-05 -1.009396568e-05
5.655081155e-05 -4.813478405e-05 -8.75346214e-06
0.0002187910852 -0.0001862300708 -0.0001485302754
0.0006646274438 0.000376697055 -0.0005955696317
3.155387466e-05 4.417657776e-05 -3.702923966e-05
7.60576991e-06 9.45622591e-06 -6.84320527e-05
3.261212407e-07 5.126999648e-07 -2.777474477e-06
0.00011999972 -0 -0
0.00026399939 -4.352872843e-05 -0
5.796932339e-08 -3.203812993e-08 0.0001032852251
0.0002440436725 -0.0001125822168 0.001257171669
0.0003822514508 -3.03535321e-05 0.0008707676455
5.136680363e-05 4.431344638e-07 0.0001143229625
0.00016851784 -0 0.00037280896
-0 -5.418454827e-06 2.490997366e-05
-4.461154897e-06 -1.482911702e-05 6.673102549e-05
-0.0002523101429 -0 0
-1.406260093e-07 -0 0.000646600775
-0 -3.019996225e-09 3.370304027e-05
-3.680525073e-06 4.675697556e-05 5.314478159e-05
-4.284976608e-08 1.372575261e-07 1.970068024e-05
-3.741119143e-05 9.934778544e-05 0.0001342333316
