# .PCD v0.7 - Point Cloud Data file format
VERSION 0.7
FIELDS x y z
SIZE 4 4 4
TYPE F F F
COUNT 1 1 1
WIDTH 48
HEIGHT 1
VIEWPOINT 0 0 0 1 0 0 0
POINTS 48
DATA ascii
-0 -0 -0.03188585811
-0 -0 -0.0002682631636
-0.0009091152872 1.990849592e-06 -8.290367689e-07
-0 -0 -0.03202740342
-2.952075366e-05 -1.566058717e-05 2.498101739e-08
-2.914530315e-05 -1.548720921e-05 1.029842401e-08
0 -0 -0.001296689091
8.13076632e-09 -0.00164500312 -4.014966795e-07
1.791567858e-05 -2.950614265e-05 -9.10905716e-09
5.568504412e-08 -1.729716806e-07 0.0332021041
-0 -0 -0.001556172109
-8.712712805e-11 -0.001645074408 -6.579759438e-07
-4.96814483e-05 -5.937314489e-05 -3.241690801e-08
-4.986471992e-05 -5.950780937e-05 -1.120097413e-07
-0 0 -0.002567453531
-8.312278578e-09 0.001639938941 -4.006994215e-07
0 -0 -1.892346573e-05
1.81723283e-05 -2.987049303e-05 -2.905816898e-08
-0.0009092165475 2.018028003e-06 -3.641152652e-07
-1.78310523e-07 -4.205822095e-09 0.0002712846267
-5.503724571e-08 -7.01207348e-09 0.001044372483
3.99721536e-09 -9.073259482e-08 0.03226963846
-0 0 -0.00235080721
-1.16175648e-10 0.001640043382 -6.557031008e-07
4.500130803e-05 3.057108702e-05 -1.425032677e-08
6.470138172e-08 -5.876880481e-09 0.0006355134249
3.083340758e-09 -4.719871094e-09 0.0009067048468
2.57269676e-07 -2.124854597e-08 0.001299229786
0.0009087843663 2.159348394e-06 -2.222800053e-07
0.0009090515207 1.990760251e-06 -3.140554366e-06
3.136295686e-05 -2.957407188e-05 6.403007465e-08
3.026572371e-05 -1.607915116e-05 5.981541422e-08
6.741501362e-09 -5.922683153e-09 7.506122794e-06
8.700247597e-09 -4.993768561e-09 1.889740544e-05
-3.057101862e-05 4.500130697e-05 -1.425452788e-08
-2.223765414e-09 1.130468518e-07 0.0009510585562
-4.3719543e-10 9.923877558e-09 0.001420555527
0 0 -2.06681605e-05
4.499457653e-05 3.057561576e-05 -2.201864516e-08
3.058112672e-05 4.500073389e-05 -2.202005889e-08
3.057558627e-05 4.499483573e-05 -2.332458188e-08
2.913751941e-05 -1.548305381e-05 5.573517855e-08
0 -0 -7.073106542e-06
3.167968903e-05 -2.962250189e-05 -8.29893156e-08
-0 0 -2.066812085e-05
-3.057554736e-05 4.499457547e-05 -2.202283286e-08
-4.500071831e-05 3.058124711e-05 -2.202628405e-08
-4.499482121e-05 3.057569518e-05 -2.334119964e-08
