# .PCD v0.7 - Point Cloud Data file format
VERSION 0.7
FIELDS x y z
SIZE 4 4 4
TYPE F F F
COUNT 1 1 1
WIDTH 60
HEIGHT 1
VIEWPOINT 0 0 0 1 0 0 0
POINTS 60
DATA ascii
2.569810478e-06 -0.0004011994809 0.001758300474
-0.0001668603432 -1.463956202e-05 7.319781174e-05
-0.0008253691576 1.068613497e-06 -5.343067606e-06
-7.026505946e-07 0.0001607925787 0.0004046224839
-6.378291396e-06 -3.108859338e-06 -0.0005473835521
-0 0.0001629821044 0.000413199945
-0 -6.618839151e-05 0.0005852486258
9.857742766e-07 -6.579705008e-05 0.0005712632773
-0.002741251034 5.693997549e-06 -3.714631472e-05
-0.001112058599 3.856032853e-06 -1.929467764e-05
2.46474439e-05 -0.0004341989621 0.001863959478
0.0001723159656 1.395446286e-07 6.151850751e-06
-1.119523546e-05 -0.0007258027532 -3.15257489e-05
1.011948835e-05 -0.0006410659787 -4.912588184e-05
-0.001894467884 1.842177879e-05 -5.719833915e-05
-0.0001508321374 1.790360414e-06 -9.349506862e-06
2.061139498e-06 0.0001549583893 -4.861603279e-05
5.599592315e-06 -8.243179439e-07 -0.0004807222184
4.692829093e-07 -8.924581694e-07 -0.0005348297974
5.101059773e-06 -8.181475909e-07 -0.0004050500895
0.001058146265 -1.173377635e-07 -5.809180657e-05
-1.774901787e-06 -4.838025199e-05 -0.0001356249096
-6.370545716e-06 -1.143742641e-06 -3.013030838e-06
0.003431273841 4.841273258e-05 -0.0001009004691
0.001026771794 1.324795307e-05 -3.397264799e-05
0.000306070159 6.754781829e-06 -9.960266322e-06
1.459428985e-05 7.988296151e-05 -0.0001177914537
-0.0001331162408 1.267680329e-05 -1.298072236e-05
-0.0002355125177 3.409609053e-06 -8.183318694e-06
-0 9.775092565e-05 -0.0001723869205
-0 0.0002208778811 -0.0002261733014
-0 7.855788485e-05 -2.715206129e-05
-1.676410113e-05 7.791781009e-06 -4.874982569e-06
-0 0.0001357623086 -8.494064284e-05
0.0002892838675 9.835881207e-06 -1.005782798e-05
-4.749546528e-08 4.859722045e-05 -0.000135033085
1.660835585e-07 4.748959035e-05 -0.0001327294616
1.376932957e-05 4.263265221e-05 -0.0001191547228
3.554504097e-05 9.103571672e-05 -0.0002334492235
9.155413397e-06 8.712467644e-05 -0.0001540141727
2.272622835e-07 9.783240457e-05 -0.0001729427008
1.244963124e-05 -3.845646477e-05 -0.0001223944308
0.000166337 -5.398168736e-06 -1.183777273e-05
0.0002593387941 -5.515380865e-06 -1.755366505e-05
-4.943527748e-07 -2.787196096e-05 -5.421775402e-05
3.365938299e-06 -6.336485928e-05 -9.390189694e-05
8.193212715e-06 -3.725138383e-05 -8.168944638e-05
8.947377411e-06 -4.397307845e-05 -0.0001210031908
-1.009174567e-06 -4.997863943e-05 -0.0001371553783
0.0002132595238 9.866936735e-06 -7.053822913e-06
-0 0.0002208778811 -0.0002261733014
8.732494568e-06 0.0001957082277 -0.0002004002201
5.369380811e-06 0.0001163204586 -0.0001189452311
1.476271549e-05 0.0001166877254 -8.341946172e-05
9.066329956e-06 0.0001202918132 -7.526141862e-05
-0 0.0001357623086 -8.494064284e-05
2.68047113e-06 3.35456859e-05 -1.489367364e-05
8.048635814e-06 7.810778117e-05 -4.133506662e-05
0.0001237689577 6.604675278e-06 -3.495230418e-06
5.101129662e-05 2.836572221e-06 -1.259386409e-06
