# .PCD v0.7 - Point Cloud Data file format
VERSION 0.7
FIELDS x y z
SIZE 4 4 4
TYPE F F F
COUNT 1 1 1
WIDTH 44
HEIGHT 1
VIEWPOINT 0 0 0 1 0 0 0
POINTS 44
DATA ascii
-0.002567095791 -2.831428384e-05 -1.325608178e-05
-0.001644620478 -1.898401523e-06 1.986606301e-05
2.738903231e-05 0.0007561735209 -0.0005583035004
4.478142722e-06 0.0006717850162 -0.0005162351257
-5.422048261e-06 0.0009701493073 0.0007053854688
-5.833567853e-07 9.271381605e-07 0.0008603450601
-1.040886739e-06 1.386443997e-06 0.001124961835
-2.400199521e-05 2.390196211e-05 1.613952007e-05
-7.057603161e-06 9.123944199e-05 4.536965635e-05
-6.657628669e-05 0.0009388329591 0.0006378348372
-0.0009533803917 -1.860778724e-05 -1.08757146e-05
1.609491018e-07 -5.889334896e-07 0.0001200312896
0.0001716821601 -0.0002334127323 -1.223927217e-06
1.100763935e-06 -0.0002785833591 -1.50377589e-07
4.355782314e-06 -0.0002761060901 -2.409885591e-06
8.824095162e-05 -1.087018468e-06 -2.684495174e-06
6.312567264e-05 -1.914957993e-08 -1.549716723e-08
4.545542507e-06 -0.0003251165781 -0.0003031780951
1.875812616e-06 -0.0001957272327 -0.0001992989162
2.416089152e-05 -0.0001165479145 -0.0001592823678
1.392522164e-06 -1.678416075e-05 -3.07889788e-05
0.0001012414481 -1.568867128e-06 -2.877940546e-06
0.0005760218709 -1.089409203e-05 -1.488861282e-05
7.885318876e-06 -0.0001081692953 -0.0002012492244
2.300825317e-06 -3.375906674e-05 -6.913264478e-05
1.90302267e-05 -0.0002787183399 -0.0002602135704
5.026298117e-06 -7.987904699e-05 -7.621530723e-05
0.0003454867244 -7.466540205e-06 -7.124079181e-06
0.0001112451751 -0.0001125545268 -4.281925611e-05
0.0002266870828 -0.0002285309103 -3.536436217e-05
4.763615339e-05 -2.661440337e-06 -1.012494998e-06
-0 -0.0002208993302 -0.000224930361
-0 -0.0003132900877 -0.0002946497585
-0.0001256581475 -1.210331581e-05 -1.165135777e-05
6.564377435e-05 -0.000111903407 -7.964315833e-05
6.423386001e-05 -7.480941916e-05 -3.938423599e-05
0.00172001906 -3.923310983e-05 -2.668058265e-05
0.0004778565644 -1.089202596e-05 -7.75200122e-06
6.054533876e-05 -1.768927571e-06 -9.312712448e-07
0.001234833302 -3.07043097e-05 -1.751350292e-05
-0 -0.0002208993302 -0.000224930361
-0 -5.232820193e-05 -8.417793819e-05
-2.206549643e-06 -8.043515262e-07 -1.182856576e-06
-6.055771213e-05 -7.764205569e-06 -7.905888896e-06
