# .PCD v0.7 - Point Cloud Data file format
VERSION 0.7
FIELDS x y z
SIZE 4 4 4
TYPE F F F
COUNT 1 1 1
WIDTH 44
HEIGHT 1
VIEWPOINT 0 0 0 1 0 0 0
POINTS 44
DATA ascii
-0.001577909278 -0.001899611641 -2.43916409e-05
-4.616242868e-05 -0.001347696889 -2.189152924e-05
-4.215494692e-05 -0 -0.0001349850165
-0.0002767282376 -0 -0
-0.0009898617354 -0.001037616752 -6.74925195e-05
8.115230186e-05 8.346306293e-05 -2.98397867e-05
0.0004906808015 0.0004990705098 1.411661186e-06
-8.560880627e-05 2.040069048e-05 -0.0003525431907
0 -0.00224241933 -5.166357413e-05
0.0001060749539 7.105736795e-06 -2.540449187e-06
-0 2.397492888e-05 -0.00042114378
2.787552259e-06 2.739665199e-05 -0.0003966786489
-0.0004150923795 -0 -0
-0.0002740084152 -0 0.0002056925686
0.0001150084705 -0.000806151922 -4.001344036e-06
-3.931081476e-06 0.0002282799331 -0.0004387039184
3.812433802e-06 0.0001593089005 -0.0003211951957
7.862284543e-06 1.560225589e-05 -1.708470835e-05
-8.182007286e-06 0.0005813993161 2.84687552e-06
0.0005113575047 0.0005108161463 3.929003349e-06
0.0007846220338 4.381765589e-05 3.370287294e-07
0.001443603654 5.193661126e-05 1.028179023e-05
3.463437606e-06 1.465561986e-05 2.739661265e-05
1.851247957e-06 1.74082588e-05 3.774002903e-05
1.920869453e-06 0.0004248989061 0.0003924189434
-5.585205205e-09 1.923494573e-05 -2.175426773e-05
-8.494457364e-07 4.54827303e-05 -6.114027035e-05
-9.541000576e-06 0.0005932180792 2.52555049e-06
-8.496720046e-05 0.0009950424086 4.581986563e-06
-9.986684324e-05 0.001058032619 -0
3.996490313e-05 0.0003668475896 0.0003390128525
3.374227244e-06 1.768985889e-05 2.339625192e-05
6.05232071e-06 3.292385364e-06 2.65523298e-06
3.468317499e-05 8.718188702e-05 7.031018428e-05
-7.312966414e-08 2.098608501e-05 2.485596771e-05
-1.206173934e-05 4.805163395e-05 5.383873793e-05
6.281008601e-05 4.326647382e-06 1.727076661e-06
2.835474545e-05 4.553842083e-06 2.6822296e-06
9.554295072e-05 0.000120585078 7.102505088e-05
0.0001109324794 0.0001145689953 4.573273956e-05
-1.599372522e-06 8.182178293e-05 7.642372963e-05
-6.833543457e-06 0.000632894007 0.0005860636966
-3.328516151e-07 0.000364048592 0.0003370890343
-1.424053612e-07 4.610218207e-05 4.307500612e-05
