# .PCD v0.7 - Point Cloud Data file format
VERSION 0.7
FIELDS x y z
SIZE 4 4 4
TYPE F F F
COUNT 1 1 1
WIDTH 48
HEIGHT 1
VIEWPOINT 0 0 0 1 0 0 0
POINTS 48
DATA ascii
-0.0007743538306 4.288339169e-06 -5.006193226e-06
-2.942884048e-07 0.003806314394 -0.004430712358
2.863682909e-09 2.458721874e-06 -0.0009915831196
8.787731614e-05 0 0.001959360903
-0.0002636318988 -0 0
-0.0005398176706 -0 -0
0.0004420459786 0.0005843913287 -0.0003423473496
1.666787538e-06 0.0008628871567 -0.001000422388
0.0004703808895 0.00233173741 -0.001868895678
4.525648306e-07 0.0003438215791 5.877833882e-06
3.766170742e-05 -0 0.0008397261125
0.0001347741951 0.0006891612748 -2.148976886e-05
0.000175536483 -0 0.0001594415262
0.0001768523969 0.0001980465264 -1.689120161e-05
6.276950647e-05 -0.0005598174347 0.0008397261125
-5.545622651e-06 -3.14624784e-05 -0
-0.0002623941354 -0.0001075557516 -4.349622214e-05
-0.001719008364 3.406854046e-06 -6.056629273e-06
-0.000401724813 -0 -0
0.0006634254773 0 -0
6.217888818e-05 0.0003947292255 0.0002021872972
6.573064934e-06 0.0002180482705 1.203817757e-05
0.0001039114103 0.0005882509399 3.248741224e-05
3.766169679e-05 -0.00111963479 0.0002799086778
2.510779904e-05 -0.0002125886966 5.31471704e-05
-1.956217639e-05 -0.0005283549563 0
-9.374145836e-05 -0.002412761926 4.609289589e-05
5.021560163e-05 -0.0005598173557 0.0005598174347
5.021559809e-05 -0.0002125886966 0.0001062943408
6.276949229e-05 -0.0005598173557 0.0008397261125
-3.766167908e-05 -0 0
5.021560872e-05 -0.0002799087568 0.0008397260335
5.021559454e-05 -0.0002799086778 0.0008397261125
0.000112985101 -5.31471704e-05 0.0001594415262
0.0002771313251 -1.802351818e-05 0.0002562763808
7.532339359e-05 -0.0001062943558 0.0001594415262
0.0003461810832 0 -0
5.021559809e-05 -0.0001062943408 0.0001062943558
0.0001506468084 -0.0003188830524 0.0002125886966
0.0001386848317 0 0
5.021559454e-05 -0.0002125886966 -0
2.510779904e-05 -0.0001062943558 -0
4.745496065e-07 -1.827115151e-06 -0.0008763833367
1.660460879e-07 -7.029593439e-07 -0.0003055858622
-2.510779904e-05 -0 0
5.021559809e-05 -0.0005598174347 0.0005598174347
7.532339004e-05 -0.00111963479 0.0005598173557
3.766169679e-05 -0.0005598173557 0.0002799086778
