# .PCD v0.7 - Point Cloud Data file format
VERSION 0.7
FIELDS x y z
SIZE 4 4 4
TYPE F F F
COUNT 1 1 1
WIDTH 70
HEIGHT 1
VIEWPOINT 0 0 0 1 0 0 0
POINTS 70
DATA ascii
-0.5847882628 -0.02750000171 0.07184430212
-0.150000006 -0.05449999869 -0.01399999764
-0.3529999852 -0.02750000171 -0.0159999989
-0.588999033 -0.02750000171 0.07427538186
-0.150000006 -0.05049999803 -0.01464759558
4.328704506e-09 -0.05449999869 -0.01399999764
-0.5847882628 0.02850000188 0.07184430212
-0.3529999852 0.02849999815 -0.0159999989
-0.150000006 0.05449999869 -0.01399999764
-0.5921243429 -0.02750000171 0.07800000161
-0.5937873125 -0.02750000171 0.0825689286
0.002910761861 -0.05449999869 0.01369406749
0.005694306456 -0.05449999869 0.01278963778
-0.2535000145 -0.02350000106 0.110499993
4.328704506e-09 -0.05449999869 0.0139999995
-0.322999984 -0.02750000171 0.09899999946
-0.5921243429 -0.02750000171 0.09200000018
-0.5937873125 -0.02750000171 0.08743106574
-0.150000006 -0.05449999869 0.0139999995
-0.150000006 0.05049999803 -0.01437401213
-0.588999033 0.02850000188 0.07427538186
-0.5847882628 0.02850000188 0.09815569222
-0.150000006 0.05449999869 0.0139999995
-0.588999033 0.02850000188 0.09572462738
-0.5799999833 0.02850000188 0.09899999946
-0.322999984 0.02850000188 0.09899999946
4.328704506e-09 0.05449999869 0.0139999995
-0.2535000145 0.02450000122 0.110499993
-0.588999033 -0.02750000171 0.09572462738
-0.01500000712 -0.05049999803 -0.01441897731
-0.1440000087 0.02849999815 -0.0159999989
-0.01500000712 0.05049999803 -0.01437401213
4.328704506e-09 0.05449999869 -0.01399999764
-0.5921243429 0.02850000188 0.07800000161
-0.5937873125 0.02850000188 0.0825689286
-0.5921243429 0.02850000188 0.09200000018
-0.5937873125 0.02850000188 0.08743106574
0.002910761861 0.05449999869 0.01369406749
0.005694306456 0.05449999869 0.01278963778
-0.5847882628 -0.02750000171 0.09815569222
-0.5799999833 -0.02750000171 0.09899999946
-0.1440000087 -0.02750000171 -0.0159999989
-0.02001821809 -0.05049999803 -0.01442747656
0.01346130762 -0.05449999869 -0.003636944108
0.01392332371 0.05449999869 -0.001463397988
0.01392332371 -0.05449999869 -0.001463397988
0.0133147873 0.05449999869 -0.004326237831
0.0133147873 -0.05449999869 -0.004326237831
-0.4850000143 -0.02350000106 0.110499993
-0.4850000143 0.02450000122 0.110499993
0.008228985593 -0.05449999869 0.01132623758
0.008228985593 0.05449999869 0.01132623758
0.002910761861 -0.05449999869 -0.01369406842
0.002910761861 0.05449999869 -0.01369406842
0.005694306456 0.05449999869 -0.01278963685
0.005694306456 -0.05449999869 -0.01278963685
0.01392332371 0.05449999869 0.001463397057
0.01392332371 -0.05449999869 0.001463397057
0.01040402986 0.05449999869 0.009367827326
0.01040402986 -0.05449999869 0.009367827326
0.01212435775 -0.05449999869 0.007000000682
0.01212435775 0.05449999869 0.007000000682
0.01212435775 0.05449999869 -0.007000001613
0.01212435775 -0.05449999869 -0.007000001613
0.01040402986 -0.05449999869 -0.009367826395
0.01040402986 0.05449999869 -0.009367826395
0.008228985593 0.05449999869 -0.01132623851
0.008228985593 -0.05449999869 -0.01132623851
0.0133147873 0.05449999869 0.0043262369
0.0133147873 -0.05449999869 0.0043262369
