# .PCD v0.7 - Point Cloud Data file format
VERSION 0.7
FIELDS x y z
SIZE 4 4 4
TYPE F F F
COUNT 1 1 1
WIDTH 92
HEIGHT 1
VIEWPOINT 0 0 0 1 0 0 0
POINTS 92
DATA ascii
-0 -0.01149011814 -0
-0 -0.00189134204 -0
0 -0.007401116576 -0
5.3836464e-05 0 0.001770624504
-0 -0.0008679229253 0
-0.000820424044 -0 0.004228284148
-7.180184e-06 -0 -0.001449487688
-0 -0.001409349626 -0
-0.000820424044 -0 0.004228284148
-0.000671500896 -0 0.003315026836
-3.261466265e-06 0.0007459491209 2.868414431e-06
-1.746468361e-05 0.008799547548 9.000911831e-05
-2.233929989e-06 0.003185099836 3.59511174e-05
0.000253190652 -0 0.000268968392
5.3836464e-05 -0 0.001770624504
2.203172984e-06 3.274631119e-05 2.34046514e-06
4.684653328e-07 0.001122970239 1.540733057e-05
-0 -0.0001754861241 -0
-5.691044554e-05 0 -5.186941007e-05
-0.0001073169423 -4.109525672e-05 -0.0003140495409
-0.001090435588 -0 -0.003780740392
-1.83971788e-05 -0 -5.383703108e-05
0.000954098948 -0 -0.004794806852
-1.52847351e-07 0.000732118943 -3.085580444e-05
-7.180184e-06 0 -0.001449487688
-0.0001072285264 0 -4.473297763e-06
0 -0.0004240124538 -0
0.0001442363357 -0.0002600930903 -0.00033211867
0 -2.612696672e-05 -0
0.001278810418 -0.002432047627 -0.002739861337
0.0003711924922 -0.0001416909102 -0.001571790103
2.286519145e-05 -2.070254057e-05 -8.026900392e-05
-1.616052961e-05 0.0003107906871 1.868684377e-05
-1.044621552e-05 0.0002208004685 9.187301938e-06
-3.574965013e-05 -0 2.06040737e-05
-9.156825822e-05 -0 0.000452048888
-3.232105384e-05 -0 3.737368131e-05
-5.691044554e-05 -0 -5.186941007e-05
-0.0001072285264 -0 -4.473297763e-06
-0.0003319778029 -0.0005856670887 -0.0003025717446
-0.0004523822617 -0.0008926987914 -0.0002532508239
-0 -0.0004032562509 -0
0.000253190652 0 0.000268968392
0.001007780708 0 0.000820189436
0 -2.100662417e-05 0
0.0002705770723 -4.892007012e-05 0.0001254152556
-0 -5.705300159e-05 -0
-0.0002385801873 -0.0002883291289 -0.0004506273965
-0.0003394137638 -0.0005862231647 -0.0003481395448
-0.0001486956877 0 -0.0005155552502
-9.198590934e-06 4.109525672e-05 -2.691852003e-05
-1.83971788e-05 0 -5.383703108e-05
-1.210632957e-05 0.002165496315 -6.777316882e-06
-3.877560507e-05 0.0008926987914 -2.170720376e-05
-2.845522751e-05 0.0005856670887 -2.593470936e-05
0.001450529422 -0.001070370701 7.010722778e-06
6.963606079e-05 -8.810358815e-05 -6.325252969e-05
0 -8.161043287e-05 -0
0.0002001868784 -3.764278667e-05 8.896188822e-05
0.0004189729231 -7.015664583e-05 0.0001016295394
0.001592323361 -0.0004595168722 0.0003921947868
0.0002182624514 0.0004504699647 5.566247096e-06
1.893729754e-05 -3.115439413e-07 -5.660967101e-05
1.094532735e-06 -3.515113998e-09 -1.724355674e-07
0.0003149006141 2.454695972e-06 6.340132841e-05
-0.0001885395965 -0.0003107906871 0.0002180132749
-3.574965013e-05 -0 2.06040737e-05
-3.232105384e-05 -0 3.737368131e-05
-0.0004609258677 -0.0009475496115 0.0001165071733
-0 -8.333358954e-05 0
-0.0002085397538 -0.0004082125581 0.0001201905037
-0.0006255001215 -0.001263035737 -2.609425298e-05
-0.0003468386646 -0.0007069494227 4.081700466e-06
-0 -3.166614367e-05 -0
-0.0004660864433 -0.0009546054798 -0.0001063566822
-2.90925953e-05 0.0005862231647 -2.984051905e-05
-2.044972118e-05 0.0002883291289 -3.862518812e-05
-6.384711828e-06 0.001244462519 -1.205936713e-05
-9.08314767e-06 0.001647351118 -9.316660762e-06
-3.950791383e-05 0.0009475496115 9.986324671e-06
-1.787482804e-05 0.0004082125581 1.030203857e-05
-3.748412651e-05 0.0008555564275 2.19115247e-05
-1.233496743e-05 0.002406928136 3.117881397e-06
-1.170311046e-05 0.002467341715 6.841108963e-06
-3.995024868e-05 0.0009546054798 -9.116282961e-06
-1.247307105e-05 0.002266065646 -2.846241233e-06
-9.28184754e-06 0.001736790411 1.092315399e-07
-2.972901509e-05 0.0007069494227 3.498598834e-07
-5.361427213e-05 0.001263035737 -2.236649254e-06
-0.000437315005 -0.0008555564275 0.0002556345692
-0.0001218725689 -0.0002208004685 0.0001071852372
-0 -1.283172842e-05 0
