# .PCD v0.7 - Point Cloud Data file format
VERSION 0.7
FIELDS x y z
SIZE 4 4 4
TYPE F F F
COUNT 1 1 1
WIDTH 78
HEIGHT 1
VIEWPOINT 0 0 0 1 0 0 0
POINTS 78
DATA ascii
-0.0002663314825 -0.0001366112841 -0.0004443979263
-4.215494692e-05 -0 -0.0001349850165
-0.002426702876 -0.001333798398 -0.000311291131
-0.0002767282376 -0 -0
-0.0002737513522 -0.000443168583 -0.001447513404
-8.560880627e-05 2.040069048e-05 -0.0003525431907
-0.000872044081 -0.0004916466753 0.0008743097096
-0.001248269435 -0.002817151539 -0.000696694938
-0.00111885942 -0.005121082989 -0.002144596411
-0.0004150923795 -0 -0
-0.002394373629 -0.001067964216 -6.946649184e-05
-0.001371676002 -0.0004305294757 0.0007557042164
-0.0002740084152 -0 0.0002056925686
5.099280177e-05 9.541311095e-06 -0.0002063377074
0.0008285638822 -0 -0
-0.0001268607987 -0.0001661738704 -0.0009649306779
-8.463087118e-05 6.536017378e-05 -0.001142368243
-5.134384462e-05 0.0001962751936 -0.001414873186
0.0001981893348 0.0006501399927 -0.0006501399927
5.021559809e-05 0.0001062943558 -0.0001062943558
-9.986684324e-05 0.001058032619 -0
7.167904069e-06 0.0002240080343 -0.0007410680141
-1.206173934e-05 4.805163395e-05 5.383873793e-05
-7.312966414e-08 2.098608501e-05 2.485596771e-05
6.276951001e-05 -0 0.001399543468
6.195627038e-05 0.0001339713795 0.0007176910997
0.0001458081762 0.0003253543448 0.0009760631262
0.0001883085052 5.31471704e-05 0.0001594415262
-0.0002244140261 -0.0004801170206 1.471436504e-05
-0.0002727494325 -0.0005733817416 3.346238995e-05
-2.279502704e-05 -0.0003700246237 0.0006018231159
-2.022151716e-06 -0.0005800083007 1.777206202e-05
7.396437794e-05 0.0001744532901 0.0004289207961
0.0007853905462 0.002474818177 0.002076989479
3.996490313e-05 0.0003668475896 0.0003390128525
0.0001004311891 0.0001062943408 0.0001062943408
0.0001506467978 0.0001062943558 0.0001594415262
0.0001979582015 0.0005669037721 0.0005669037721
0.0002289923013 0.0005669038521 0.0008503557382
0.00217389889 -0.0009216657698 0.000109314753
0.0004016243098 -0 -0
0.0001482043051 8.622486952e-06 9.702295445e-05
0.0004292028889 -0 0.000265735867
-2.796664667e-07 -0.0006895907532 1.106244284e-05
0.000323449794 -0.0002633107813 -2.087775801e-05
1.761585567e-06 -0.003516323036 -0.001215305642
-1.73016432e-06 -0.004168190575 -0.00143894694
1.578047967e-06 -1.181642726e-05 -7.845836243e-05
-6.497692712e-08 -1.927018046e-05 -0.0001320702738
-2.111320658e-07 -7.242224885e-05 -0.0004205315881
2.686608668e-07 -0.0001098511309 -0.000629650272
0.001242425626 0.003895206879 1.63831628e-05
-5.585205205e-09 1.923494573e-05 -2.175426773e-05
3.812433802e-06 0.0001593089005 -0.0003211951957
7.706483694e-05 0.0003907423428 -0.0006578540904
3.607069901e-05 0.0001261004286 -0.0001400413672
-8.494457364e-07 4.54827303e-05 -6.114027035e-05
-3.931081476e-06 0.0002282799331 -0.0004387039184
-8.496720046e-05 0.0009950424086 4.581986563e-06
-7.638845963e-06 0.0007123627501 0.0006603037596
1.920869453e-06 0.0004248989061 0.0003924189434
-1.269326992e-06 0.0004125038139 0.000382347707
-9.541000576e-06 0.0005932180792 2.52555049e-06
-8.182007286e-06 0.0005813993161 2.84687552e-06
5.021561226e-05 -0 0.001119634869
-2.045023113e-05 -0 0.0003775973607
0.0001183558154 0.0002083917657 0.00222214279
0.0005206959513 0.001625349936 0
0.001067081458 0.0009035019717 -0
0.0003138474969 0.000265735882 0
0.0004737028004 0.00129903126 0.0006495156758
0.0003528117868 0.0009742734679 0.0003247577921
0.0001255390023 0.0001594415262 5.31471704e-05
0.0001506467943 0.0002125886966 0.0001062943558
0.0004617278129 0.001300279894 -0.0003250699505
0.0002283416274 0.000650139901 -0.0003250699505
6.276949229e-05 0.0001062943408 -5.31471704e-05
0.0001632006956 0.0002125886966 -5.31471704e-05
