# .PCD v0.7 - Point Cloud Data file format
VERSION 0.7
FIELDS x y z
SIZE 4 4 4
TYPE F F F
COUNT 1 1 1
WIDTH 290
HEIGHT 1
VIEWPOINT 0 0 0 1 0 0 0
POINTS 290
DATA ascii
-3.576278829e-09 -0.06309999526 0.009500015527
-0.1000000015 0.06809999049 0.009500000626
2.235173824e-09 0.06809999049 0.009500000626
0.02419758961 0.07384521514 -0.003500012681
0.005583959632 0.06809999049 0.007685662247
0.01750000007 0.07500000298 -0.003500012681
0.01886484958 0.07495337725 -0.003500012681
-0.137500003 0.07499999553 -0.05350001901
-0.137500003 0.07500000298 -0.003500016872
0.01750000007 0.07499999553 -0.05350001156
-0.1501217633 0.07051422447 -0.003500015475
-0.1501217633 0.07051421702 -0.05350001901
-0.1502048969 0.07044619322 -0.02850001492
-0.1574999988 -0.0549999997 -0.003499989398
-0.1574719697 -0.05605847389 -0.02849998884
-0.1574999988 -0.05500000715 -0.05349998921
-0.1538393945 -0.06653360277 -0.003499988001
-0.1000000015 -0.06809999049 0.009500012733
-0.1545883864 -0.06539168209 -0.003499988001
-0.1000000015 -0.0630999878 0.009500012733
0.03749999776 -0.0549999997 -0.003499986371
0.03748754039 -0.05570583045 -0.02849998511
0.03749999776 -0.05500000715 -0.05349998176
0.03012175485 0.07051422447 -0.003500012681
0.03115106188 0.06961672008 -0.003500012681
0.02903360128 0.07133939862 -0.003500012681
0.0367583409 0.06039591879 -0.05350001156
0.03749999776 0.05499999225 -0.05350000784
0.03745337203 0.05636483803 -0.05350000784
0.005583959632 -0.06809999794 0.007685677148
0.03301421925 -0.06762176007 -0.003499983577
0.03211671859 -0.06865106523 -0.003499983577
0.03383939341 -0.06653360277 -0.003499983577
-3.576278829e-09 -0.06809999794 0.009500015527
0.01886484958 -0.0749533698 -0.00349998218
0.01750000007 -0.07500000298 -0.00349998218
0.02022332884 -0.07481371611 -0.00349998218
0.02419758961 -0.07384522259 -0.05349998176
0.02546802536 -0.07334423065 -0.05349998176
0.01886484958 -0.0749533847 -0.05349998176
-0.1467012912 -0.0727577135 -0.05349998921
0.01750000007 -0.07500001043 -0.05349998176
-0.06359345466 -0.06457319111 -0.05349998921
0.02156911604 -0.07458167523 -0.00349998218
0.02289592847 -0.07425834239 -0.00349998218
0.01820582524 0.07498753816 -0.02850001305
-0.1441975832 0.07384521514 -0.003500016872
-0.1441975832 0.07384520024 -0.05350001901
-0.1440817714 0.07388596982 -0.02850001492
-0.1574999988 0.05499999598 -0.003500012681
-0.1573137194 -0.05772332847 -0.003499989398
-0.1570816785 -0.05906911567 -0.003499989398
-0.1545803994 -0.06540478766 -0.02849998698
-0.1545883864 -0.06539168954 -0.05349998921
-0.137500003 -0.07500000298 -0.003499984974
-0.138864845 -0.0749533698 -0.003499984974
0.03749999776 0.05499999598 -0.003500008257
0.03745337203 0.05636485294 -0.003500009654
0.03747196868 0.05605846643 -0.02850000747
0.02993033268 0.07066801935 -0.02850001305
0.02903360128 0.07133938372 -0.05350001156
0.0278916806 0.07208837569 -0.05350001156
0.0267013032 0.0727576986 -0.05350001156
0.02419758961 0.07384520024 -0.05350001156
0.02374744602 0.07399918884 -0.02850001305
0.02289592847 0.07425833493 -0.05350001156
0.0250720568 0.07351117581 -0.02850001305
0.02022332884 0.07481371611 -0.003500012681
0.02156911604 0.07458168268 -0.003500012681
0.02289592847 0.07425833493 -0.003500012681
0.0278916806 0.07208839059 -0.003500012681
0.02670129761 0.07275770605 -0.003500012681
0.02546801977 0.07334421575 -0.003500012681
0.03745337203 -0.05636486039 -0.05349998176
0.03634520993 0.06169757992 -0.05350001156
0.03225217015 -0.06850457191 -0.02849998139
0.03211671859 -0.06865107268 -0.05349998176
0.03316802159 -0.06743033975 -0.02849998139
0.03675833717 -0.06039592996 -0.003499984974
0.03689255565 -0.05989169702 -0.02849998511
0.03708167747 -0.05906911567 -0.003499984974
0.03634520993 -0.06169758737 -0.003499984974
0.03584421799 -0.06296802312 -0.003499984974
0.03601118177 -0.06257206202 -0.02849998511
0.03649919108 -0.06124744564 -0.02849998511
0.03458838537 -0.06539168209 -0.003499983577
0.02419758961 -0.07384520769 -0.00349998218
0.02546801977 -0.07334421575 -0.00349998218
0.02670129761 -0.07275770605 -0.00349998218
0.0278916806 -0.07208838314 -0.00349998218
0.03745337203 -0.05636484921 -0.003499984974
0.03738795966 -0.05711397529 -0.02849998511
0.02289592847 -0.07425834984 -0.05349998176
0.02156911604 -0.07458169013 -0.05349998176
-0.06164392829 -0.06436828524 -0.05349998921
0.02022332884 -0.07481372356 -0.05349998176
0.01996463165 -0.07484755665 -0.02849998139
0.01855847053 -0.0749719739 -0.02849998139
0.02135851979 -0.07462426275 -0.02849998139
-0.1415691078 0.07458168268 -0.003500016872
-0.1415691078 0.07458166778 -0.05350001901
-0.1413585246 0.0746242553 -0.02850001492
-0.1552577019 0.06420129538 -0.05350001901
-0.1567583382 0.06039591879 -0.05350001156
-0.1563452035 0.06169757992 -0.05350001156
-0.1574533731 0.05636483803 -0.05350001156
-0.1573137194 0.0577233173 -0.05350001156
-0.1574999988 0.05499999225 -0.05350001156
-0.1574533731 -0.05636486039 -0.05349998921
-0.1573137194 -0.05772333965 -0.05349998921
-0.1571242511 -0.05885852501 -0.02849998884
-0.1574533731 0.05636485294 -0.003500012681
-0.1573137194 0.0577233322 -0.003500014078
-0.1574533731 -0.05636484921 -0.003499989398
-0.137500003 -0.07500001043 -0.05349998176
0.03211671859 0.06865106523 -0.003500011051
0.03301421925 0.06762176007 -0.003500011051
0.03458838537 0.06539168209 -0.003500011051
0.03525770083 0.06420129538 -0.003500011051
0.03525770828 0.06420129538 -0.05350001156
0.03708167747 0.05906911939 -0.003500009654
0.03675833717 0.06039592996 -0.003500009654
0.03634520993 0.0616975911 -0.003500009654
0.02546802536 0.0733442083 -0.05350001156
0.02156911604 0.07458166778 -0.05350001156
0.02239169739 0.07439254969 -0.02850001305
0.02760173008 0.07226137072 -0.02850001305
0.02879416384 0.07150580734 -0.02850001305
-0.1385584623 0.07497196645 -0.02850001492
-0.138864845 0.07495336235 -0.05350001901
-0.142895937 0.07425833493 -0.05350001901
0.03731371462 0.0577233173 -0.05350000784
0.03708167747 0.05906910449 -0.05350000784
0.03584421799 -0.06296803057 -0.05349998176
0.03543094918 -0.06385896355 -0.02849998511
0.03012176044 -0.07051423192 -0.05349998176
0.02903360128 -0.07133940607 -0.05349998176
0.0290837083 -0.07130392641 -0.02849998139
0.03012175485 -0.07051422447 -0.003499983577
0.0278916806 -0.07208839804 -0.05349998176
0.03584421799 0.06296801567 -0.05350001156
-0.1567583382 -0.06039592996 -0.003499989398
-0.1563452035 -0.06169758737 -0.003499989398
-0.1563859731 -0.061581783 -0.02849998884
-0.1567583382 -0.06039594114 -0.05349998921
-0.1558442116 -0.06296802312 -0.003499988001
-0.1552717984 -0.0641740337 -0.02849998698
-0.1558442116 -0.06296803057 -0.05349998921
0.03400580958 -0.06629417092 -0.02849998511
0.03525770083 -0.06420130283 -0.003499983577
0.03476137668 -0.06510172784 -0.02849998511
0.02408177964 -0.07388597727 -0.02849998139
0.02539757825 -0.07337466627 -0.02849998139
0.03115106188 -0.06961671263 -0.003499983577
0.02903360128 -0.07133939117 -0.00349998218
0.03731371462 -0.05772332847 -0.003499984974
0.03718930855 -0.05851158127 -0.02849998511
0.02273318544 -0.07430320978 -0.02849998139
-0.138864845 0.07495337725 -0.003500016872
-0.1399646252 0.0748475492 -0.02850001492
-0.142895937 0.07425833493 -0.003500016872
-0.1490336061 0.07133939862 -0.003500016872
-0.1454680264 0.07334421575 -0.003500016872
-0.1467012912 0.07275770605 -0.003500016872
-0.1570816785 0.05906910449 -0.05350001156
-0.1511510611 0.06961670518 -0.05350001901
-0.1570816785 -0.05906912684 -0.05349998921
-0.1563452035 -0.06169760227 -0.05349998921
-0.1552577019 -0.06420131028 -0.05349998921
-0.1570816785 0.05906911939 -0.003500014078
-0.1552577019 0.06420129538 -0.003500014078
-0.1545883864 0.06539168209 -0.003500015475
-0.154761374 0.06510172039 -0.02850001492
-0.1564991921 0.06124743447 -0.02850001305
-0.1563452035 0.0616975911 -0.003500014078
-0.1558442116 0.06296801567 -0.05350001156
-0.1521167159 0.06865106523 -0.003500015475
-0.1530142277 0.06762176007 -0.003500015475
-0.1538393945 0.06653360277 -0.003500015475
-0.1540058106 0.06629416347 -0.02850001492
-0.1545883864 0.06539166719 -0.05350001901
-0.1574875265 0.05570581928 -0.02850001305
-0.157387957 0.05711396411 -0.02850001305
-0.157347545 -0.05746463686 -0.02849998884
-0.1490336061 -0.07133939117 -0.003499986371
-0.1501217633 -0.07051422447 -0.003499986371
-0.1402233243 -0.07481371611 -0.003499984974
-0.1454680264 -0.07334421575 -0.003499986371
-0.1467012912 -0.07275770605 -0.003499986371
0.03294619545 0.0677049011 -0.02850001119
0.0330142267 0.06762175262 -0.05350001156
0.03383939341 0.06653360277 -0.003500011051
0.03458838537 0.06539166719 -0.05350001156
0.03680320457 0.06023317948 -0.02850001119
0.03584421799 0.06296802312 -0.003500011051
0.03638597205 0.06158177555 -0.02850001119
0.03012176044 0.07051421702 -0.05350001156
0.03115106188 0.06961670518 -0.05350001156
0.03211671859 0.06865105033 -0.05350001156
0.02635896206 0.0729309395 -0.02850001305
0.02101158351 0.07468930632 -0.02850001305
-0.1402233243 0.07481370121 -0.05350001901
-0.1427331865 0.07430320233 -0.02850001492
0.03712426126 0.05885851756 -0.02850000747
0.03731371462 0.0577233322 -0.003500009654
0.03458838537 -0.06539168954 -0.05349998176
0.0367583409 -0.06039594114 -0.05349998176
0.03115106188 -0.06961672753 -0.05349998176
0.0267013032 -0.0727577135 -0.05349998176
-0.1552577019 -0.06420130283 -0.003499988001
0.02790478431 -0.07208041847 -0.02849998139
-0.1402233243 0.07481371611 -0.003500016872
-0.1478916705 0.07208839059 -0.003500016872
-0.1467012912 0.0727576986 -0.05350001901
-0.1568032056 -0.06023319066 -0.02849998884
-0.1558746547 -0.06289757788 -0.02849998884
-0.1538393945 -0.06653361022 -0.05349998921
-0.1530142277 -0.06762176752 -0.05349998921
-0.1538039148 -0.06658371538 -0.02849998698
-0.1521167159 -0.06865107268 -0.05349998921
-0.1511510611 -0.06961672753 -0.05349998921
-0.1520115286 -0.06876283139 -0.02849998698
-0.1521167159 -0.06865106523 -0.003499986371
-0.1529462039 -0.06770490855 -0.02849998698
-0.1478916705 -0.07208839804 -0.05349998921
-0.1490336061 -0.07133940607 -0.05349998921
-0.1501217633 -0.07051423192 -0.05349998921
-0.1567583382 0.06039592996 -0.003500014078
-0.1571893096 0.05851157382 -0.02850001305
-0.1558442116 0.06296802312 -0.003500014078
-0.1511510611 0.06961672008 -0.003500015475
-0.1522521675 0.06850456446 -0.02850001492
-0.1521167159 0.06865105033 -0.05350001901
-0.1530142277 0.06762175262 -0.05350001901
-0.1531680226 0.06743032485 -0.02850001492
-0.1538393945 0.06653359532 -0.05350001901
-0.1530142277 -0.06762176007 -0.003499988001
-0.1511510611 -0.06961671263 -0.003499986371
-0.1478916705 -0.07208838314 -0.003499986371
-0.1415691078 -0.07458167523 -0.003499984974
-0.142895937 -0.07425834239 -0.003499986371
-0.1382058263 -0.07498754561 -0.02849998511
-0.1441975832 -0.07384520769 -0.003499986371
-0.1463589668 -0.07293094695 -0.02849998698
-0.1454680264 -0.07334423065 -0.05349998176
-0.1441975832 -0.07384522259 -0.05349998176
0.03380392119 0.06658370048 -0.02850001119
0.03458041325 0.06540478021 -0.02850001119
0.03587466478 0.06289757043 -0.02850001119
0.03527180105 0.06417402625 -0.02850001119
0.03100457415 0.06975216419 -0.02850001119
0.03201153129 0.06876281649 -0.02850001119
0.02022332884 0.07481370121 -0.05350001156
0.03734755144 0.05746462941 -0.02850000747
0.0330142267 -0.06762176752 -0.05349998176
0.03525770828 -0.06420131028 -0.05349998176
0.03708167747 -0.05906912684 -0.05349998176
0.03634520993 -0.06169760227 -0.05349998176
0.03126282245 -0.06951153278 -0.02849998139
0.0302049052 -0.07044620067 -0.02849998139
0.02667403035 -0.07277181 -0.02849998139
-0.1490837038 0.07130391896 -0.02850001492
-0.1490336061 0.07133938372 -0.05350001901
-0.1479047835 0.07208041102 -0.02850001492
-0.1453975737 0.07337465882 -0.02850001492
-0.1454680264 0.0733442083 -0.05350001901
-0.1466740221 0.07277179509 -0.02850001492
-0.1499303281 -0.0706680268 -0.02849998698
-0.156892553 0.05989168957 -0.02850001305
-0.1560111791 0.06257205456 -0.02850001492
-0.1554309279 0.0638589561 -0.02850001492
-0.1512628198 0.06951152533 -0.02850001492
-0.1510045677 -0.06975217909 -0.02849998698
-0.1476017088 -0.07226137817 -0.02849998698
-0.1487941593 -0.07150581479 -0.02849998698
-0.1437474489 -0.07399919629 -0.02849998511
-0.1450720578 -0.07351118326 -0.02849998698
0.03383939341 0.06653359532 -0.05350001156
0.01886484958 0.07495336235 -0.05350001156
0.03383939341 -0.06653361022 -0.05349998176
0.03731371462 -0.05772333965 -0.05349998176
-0.1478916705 0.07208837569 -0.05350001901
-0.1410115808 -0.07468931377 -0.02849998511
-0.1415691078 -0.07458169013 -0.05349998176
-0.1423916966 -0.07439256459 -0.02849998511
0.01961396821 0.0748879537 -0.02850001305
-0.1402233243 -0.07481372356 -0.05349998176
-0.142895937 -0.07425834984 -0.05349998176
-0.138864845 -0.0749533847 -0.05349998176
-0.1396139711 -0.0748879686 -0.02849998511
