# .PCD v0.7 - Point Cloud Data file format
VERSION 0.7
FIELDS x y z
SIZE 4 4 4
TYPE F F F
COUNT 1 1 1
WIDTH 76
HEIGHT 1
VIEWPOINT 0 0 0 1 0 0 0
POINTS 76
DATA ascii
-0.0001936310691 1.609838802e-05 -1.162780125e-05
2.726081642e-06 3.430321188e-06 -5.419144038e-05
-8.737880738e-05 1.329699259e-05 -8.075109963e-07
-0.000102312084 1.277432716e-05 -3.941799177e-06
9.996791522e-06 -1.420968652e-06 0.0001708747636
0.00010241731 4.242267915e-05 -8.457700018e-12
-6.901119018e-05 -1.427879765e-05 -9.038705383e-07
-2.048711048e-05 -5.183501448e-06 -3.468485049e-07
-1.201771142e-05 4.781253567e-05 -0.0002306916548
-1.409935912e-05 3.018266864e-05 -0.0001154354963
-1.20261837e-05 1.990919823e-05 9.688384451e-05
-2.32828466e-05 4.99838209e-06 3.549576386e-06
-5.215519549e-06 -2.223596405e-06 -8.51693604e-08
6.62771125e-06 -8.686563333e-06 -1.515721472e-05
5.899948085e-05 -0.0001113270808 0.0001754731748
2.62241761e-05 -3.930653437e-05 0.0001273459624
8.09585815e-05 -0.0001537305898 9.98874757e-05
4.94183643e-05 2.046977462e-05 2.107574794e-11
1.208275726e-05 5.614582529e-06 -0.0001662749937
1.98958445e-05 -2.202505587e-05 -6.63790836e-05
-5.5836179e-06 1.174160395e-06 -8.063203379e-07
-1.619971982e-05 4.534773346e-05 -8.246052849e-05
-1.090138846e-06 3.775373264e-06 9.556041014e-06
8.688797172e-06 3.599031378e-06 3.046143197e-11
-3.513556738e-06 1.139860876e-05 2.692424882e-05
-1.900897112e-06 4.921429809e-06 1.195780809e-05
-3.093466403e-05 8.996492739e-05 -0.0001131629714
-2.483546647e-06 6.441679974e-06 2.512030669e-06
-8.070302335e-06 1.039300095e-05 -7.53503703e-09
-1.714133764e-06 6.178351446e-06 -1.939355979e-06
5.901352818e-06 2.444439821e-06 -1.099289403e-11
1.195898348e-05 4.953589135e-06 -5.919539935e-12
-2.091580669e-05 5.781567415e-05 -1.376217784e-05
5.209953288e-07 -2.043994907e-06 6.692230534e-08
7.336468832e-06 -1.57689688e-05 1.644168521e-06
0.0002553030725 -0.0005569955495 2.029547307e-05
9.150193025e-05 -0.0001738588027 -3.449686374e-05
6.055084789e-05 -8.286930064e-05 -0.0001188574069
3.453460261e-05 1.430466091e-05 -6.191313691e-11
1.768271412e-06 7.324384517e-07 -7.002235026e-12
1.144473995e-05 4.740543643e-06 -4.517278691e-11
-1.125652064e-06 1.794984581e-06 -3.878398894e-06
-1.200080633e-06 2.639264691e-06 -8.935005894e-06
-3.644793251e-06 9.71041781e-06 -1.878410308e-05
-4.746545187e-06 1.064008238e-05 -6.748646824e-06
-4.006736218e-06 1.102379641e-05 -1.022756275e-05
-1.081805979e-05 2.978322973e-05 -2.789398645e-05
3.948023591e-08 2.258732381e-07 2.022847236e-07
2.435040902e-05 1.008630876e-05 1.008844169e-10
4.697089769e-06 1.945605707e-06 1.720421314e-11
-2.926578842e-05 8.247659837e-05 5.045917974e-05
-4.551791302e-06 1.28213422e-05 8.361035751e-06
1.528393082e-06 6.33083419e-07 4.631456006e-12
1.916479219e-06 1.192112541e-05 9.766586509e-05
-3.765495903e-06 1.455075242e-05 4.089384969e-05
-6.784972701e-06 1.839536026e-05 2.427325086e-05
-3.906060744e-06 4.766789348e-06 4.958335596e-06
-4.180496566e-06 1.084313709e-05 4.228451491e-06
-4.947091637e-06 1.28314879e-05 5.003839859e-06
-3.65811498e-06 7.997154405e-06 1.042205472e-05
-8.969454215e-07 1.960849444e-06 2.55541831e-06
-3.874413262e-05 0.0001024637426 4.048624211e-05
-2.94777912e-06 8.064932646e-06 4.08950008e-06
-2.843585967e-07 1.801722159e-06 8.288348916e-09
-2.578918265e-05 7.209318108e-05 -2.431468382e-06
-1.18202997e-05 3.286090939e-05 -4.658342101e-07
-4.675595058e-06 6.178334968e-06 -3.684627114e-08
-2.736824582e-06 6.938340798e-06 -3.149394098e-06
-2.481808719e-05 6.460854543e-05 -2.852273309e-05
-1.857159443e-05 4.856900837e-05 -1.965218899e-05
-3.746161774e-06 7.784099542e-06 -1.15503176e-07
-1.178745181e-05 2.42590294e-05 -1.318186588e-07
-1.283572975e-05 3.486576247e-05 5.497707036e-05
-1.229708891e-06 3.289725895e-06 5.16283068e-06
-1.165692717e-06 3.256206362e-06 5.983250525e-06
-1.086952329e-05 3.044302727e-05 5.560726128e-05
