# .PCD v0.7 - Point Cloud Data file format
VERSION 0.7
FIELDS x y z
SIZE 4 4 4
TYPE F F F
COUNT 1 1 1
WIDTH 58
HEIGHT 1
VIEWPOINT 0 0 0 1 0 0 0
POINTS 58
DATA ascii
-0.0001825534449 0 -7.925274826e-05
-0 0 -0.0004971397709
-0 -0 0.0005551385081
-0.001590960845 -0.000454812308 0.0001006908353
-0.0008105223784 -0.0001045709033 2.674956903e-06
-0.0001070859164 -1.343397683e-05 0
-0.0005882160473 -6.257077799e-05 -8.540478156e-06
-3.175290984e-05 -4.737240484e-07 -1.163419071e-05
-0.0002940928777 -4.387593746e-06 -5.635425127e-07
-0.0002603257834 -1.351378159e-05 -7.122771703e-07
-0 0.0001248290288 -0.0002333751638
-6.013220304e-05 2.188632862e-05 -3.831193031e-05
0.0001378646846 -0 -1.691731251e-05
0 -0 -0.0004971397709
0 -9.427110344e-05 -8.425867438e-05
-0 -0.0007822406208 9.176256016e-05
-0.0003686853254 -0.001336658129 7.213751314e-05
-2.541573079e-05 -0.0001136406796 -6.803203464e-06
-2.440910642e-05 -9.438868257e-05 -0
-0 -0 0.0005551385081
-0.0003509065417 -0 0.00031397579
0.001182116946 2.352033526e-05 -0
0.001848106885 -0 0.0001327582058
0.0008743478797 8.614071902e-05 1.330538491e-05
0.000830077041 8.177915772e-05 -0
0.0007805720621 0 1.512733704e-05
5.403382972e-05 -2.149676751e-06 1.54004538e-06
0.0003054859584 -5.743336855e-05 2.194449253e-05
0.0009520550378 0 6.839058914e-05
0.0002455979736 0.0005269265243 -0.0003269367971
0.0002578121066 0.0003986642941 -0.0002204743391
-3.510616893e-05 1.037229014e-06 2.79534326e-05
-0.0002955873437 9.18951034e-06 7.521391642e-07
-8.675541365e-05 3.157638331e-05 -2.272885646e-05
0.0002131174403 0.0003988983432 -2.017172799e-06
-0 0.0004624350106 5.757973552e-05
-0.0003452164837 9.869761165e-05 3.598809539e-05
-0.0001172036341 3.32917312e-05 1.252854649e-05
-0.0003494083169 5.697676523e-05 3.149418299e-06
-2.48778221e-05 2.121935744e-05 -9.646301458e-06
-3.74278116e-06 4.271150359e-05 -2.163768475e-05
-4.183568242e-05 3.460301511e-05 -5.921310462e-06
1.08895213e-06 2.407530291e-06 -4.977751711e-07
1.305619905e-05 2.462390031e-05 -5.642295013e-06
8.428009364e-06 1.604404055e-05 -2.989007198e-06
-4.213538528e-05 3.469197247e-05 -5.856218452e-06
-1.344020705e-06 2.327907441e-06 -3.083891484e-07
-1.234264353e-05 2.137804247e-05 1.900190811e-06
-9.813401951e-05 1.068912267e-05 5.461783969e-07
-0.0001483023128 1.272563303e-05 5.542317969e-07
-0.0002259069009 3.169369994e-05 -2.442024086e-07
-0.0003406958736 5.081970333e-05 2.087396019e-06
-0.0002020414088 9.702831594e-05 2.006226676e-06
-0.0004272780563 0.000247992055 -1.018513742e-06
-6.633978875e-05 2.313746656e-05 5.644896013e-06
-8.400794157e-05 6.006918711e-05 2.870235959e-06
-5.329488067e-05 3.98435959e-05 2.098231781e-06
-7.145015611e-06 4.690304288e-06 3.242449622e-07
