# .PCD v0.7 - Point Cloud Data file format
VERSION 0.7
FIELDS x y z
SIZE 4 4 4
TYPE F F F
COUNT 1 1 1
WIDTH 44
HEIGHT 1
VIEWPOINT 0 0 0 1 0 0 0
POINTS 44
DATA ascii
-5.122352049e-07 -0 0.0005015766306
4.490945798e-11 0.0005465028216 -5.480065131e-10
1.836836102e-06 3.67367e-13 -0.0005091739055
1.836835735e-06 -0 -0.0005091737987
-5.122303073e-07 1.003152861e-10 0.0005015767309
-3.491561095e-05 -1.396623599e-11 -4.038837423e-06
-8.559478424e-06 -0 2.634338554e-05
-3.491560397e-05 0 -4.038826616e-06
-2.37500145e-05 -0 1.72553719e-05
-1.019971202e-11 1.454129351e-05 -3.139150806e-11
-8.4997651e-06 -1.699952001e-12 -2.61596057e-05
-1.819103591e-05 -7.276409996e-12 -1.321654793e-05
-4.110009898e-11 -0.0005097625424 4.379615512e-10
0 1.911832819e-05 -0
-8.559483424e-06 5.268675002e-12 2.634338554e-05
-2.37500095e-05 3.451073001e-12 1.72553719e-05
-1.819102091e-05 -7.929918e-12 -1.321653793e-05
-8.4997801e-06 -1.5695757e-11 -2.61596107e-05
-3.462230398e-11 -1.551969819e-05 4.400099998e-13
-3.800000798e-11 -5.304755088e-05 2.760858399e-11
-1.369515999e-11 -8.098649467e-05 4.214939998e-11
-1.823135201e-10 -0.001875741814 9.346299426e-10
-1.189968502e-11 -0.0001750364741 -3.662343305e-11
8.75476502e-12 -1.341704273e-05 2.694438506e-11
8.754770253e-06 5.388877007e-12 2.694440117e-05
6.405727562e-06 -0 -1.971478289e-05
4.385593131e-05 8.771180995e-12 2.973651784e-07
1.661265997e-05 3.322529998e-12 1.281492269e-05
1.696221678e-05 -0 -1.292850517e-05
6.405727562e-06 -0 -1.971478289e-05
4.385592254e-05 -1.754236199e-11 2.973501189e-07
1.696221678e-05 -6.784883996e-12 -1.292849517e-05
-0 -1.006359208e-05 -0
-6.808026509e-11 -0.0009965635473 2.267742919e-10
-3.271510905e-11 -0.0005090852521 4.570057107e-11
1.661264997e-05 8.448493998e-12 1.281492269e-05
8.754775253e-06 1.2528706e-11 2.694439617e-05
3.388832098e-11 2.228278709e-05 -7.391583996e-12
2.713953599e-11 4.016723324e-05 -2.068559999e-11
1.024915999e-11 6.110828628e-05 -3.154363998e-11
1.949758241e-10 0.001858956034 -9.323663536e-10
5.369521407e-11 0.0008029237519 -1.087695549e-10
1.225667802e-11 0.0001761995201 3.772213205e-11
4.523327207e-11 0.0006974238759 -6.103823609e-11
