# .PCD v0.7 - Point Cloud Data file format
VERSION 0.7
FIELDS x y z
SIZE 4 4 4
TYPE F F F
COUNT 1 1 1
WIDTH 40
HEIGHT 1
VIEWPOINT 0 0 0 1 0 0 0
POINTS 40
DATA ascii
-0 -0 2.502979119e-05
-5.846030117e-05 -4.244310085e-05 7.528579996e-13
0 0 1.735111017e-06
3.849522002e-12 -4.300795998e-12 -3.476472493e-05
4.100749289e-06 5.175752698e-05 3.557115975e-05
-0.0001235356346 -3.47510473e-05 -8.195220266e-09
5.175176572e-05 4.100322942e-06 2.765093961e-05
7.671261e-12 -8.11533e-13 -3.744730012e-05
0 -0 -3.081075534e-06
2.205206251e-05 4.548686605e-05 1.891506072e-09
0 0 1.088630045e-06
-0.0001699160534 -0.0001699161534 -3.398332998e-12
-0.000237716998 -0.0002670357485 -1.99268924e-06
-4.244324915e-05 -5.846044883e-05 -6.336173704e-08
-9.711845194e-05 -6.779945136e-05 -6.337118343e-08
-1.942369e-12 -1.355989e-12 -1.448766297e-06
-3.220341445e-05 -9.100602817e-06 3.035534668e-06
-0.0001239514361 -3.503098125e-05 4.557231202e-09
-0.0001366568044 -6.579937135e-05 -2.408967679e-09
1.324738245e-05 7.717619698e-06 2.113947237e-06
5.097315524e-05 2.969272269e-05 4.015479267e-08
-5.257351793e-06 -1.602514912e-05 1.214283883e-06
-2.023719324e-05 -6.168374732e-05 4.998669924e-09
3.913956e-12 2.363715e-12 -5.342588277e-06
0.0006779942056 0.0006142055038 -5.651941428e-06
0.0002537368185 0.0002130954724 2.738213661e-08
5.177882114e-05 3.127024836e-05 4.461573315e-09
0.0002845544751 0.000274597572 3.958035301e-08
5.729866145e-06 1.179215492e-05 4.355450021e-06
2.208027136e-05 4.541183777e-05 3.757568e-09
-3.545277258e-05 -1.708466791e-05 4.601694844e-07
-3.041546556e-05 -1.996241494e-05 -1.93290336e-10
-0.0001364388538 -6.574961277e-05 2.367432468e-09
-6.381392069e-05 -0.0001323057089 -1.501793276e-08
-2.177866171e-05 -3.364175051e-05 4.451287728e-09
-1.657998623e-05 -3.437530318e-05 4.624807771e-07
-2.022270685e-05 -6.130365336e-05 5.3808906e-10
-6.580032672e-05 -0.0001366589198 -2.519244294e-08
-1.01907e-12 -3.089236e-12 -5.428733162e-06
-3.315834e-12 -6.886566001e-12 -7.516075908e-06
