# .PCD v0.7 - Point Cloud Data file format
VERSION 0.7
FIELDS x y z
SIZE 4 4 4
TYPE F F F
COUNT 1 1 1
WIDTH 78
HEIGHT 1
VIEWPOINT 0 0 0 1 0 0 0
POINTS 78
DATA ascii
0 0 0.005976072481
-0 -0.005022568263 0
0 -0.005022568263 -0
-0 0.005358978123 -0
-0 -0 0.005976072481
-0.000566997647 9.126322979e-05 -1.427919183e-05
-0.002667351854 0.0004603464131 -2.16579261e-05
-0.001352230274 -0.0002890671077 -0
-0.0001544239319 -2.674981939e-05 -0.000341290594
-0.0006895472563 -0 0.0006169766557
-0.003113624267 -0.0004883436477 4.028585896e-05
-0 0.005215290451 0
-0.0001050444364 1.063249966e-05 -2.501619366e-05
-0.00067012857 8.94098253e-06 -0.0003315205527
-0.0007943503211 -0.0001031661898 2.674956903e-06
0 0.0001097353201 0
9.442809823e-05 -6.470166272e-06 -9.442571607e-05
-5.382880494e-09 -0.0004511589366 -0.005214241956
-0 -0.000473231436 -0.005469294324
-1.709671134e-05 -1.203265866e-08 -1.102559869e-05
-7.479532572e-05 -2.634848989e-06 -7.479680633e-05
-3.141852085e-06 -8.528114303e-09 -3.141859462e-06
0.00115407342 -2.687027695e-05 -0.0004408124017
0.002497313402 -0.0003931290342 -0
0.002080207175 -0.0003250308185 1.193895896e-06
-0 0.0001496612719 0
-0.0005882160473 -6.257077799e-05 -8.540478156e-06
-3.175290984e-05 -4.737240484e-07 -1.163419071e-05
-0.0002940928777 -4.387593746e-06 -5.635425127e-07
-0.0002603257834 -1.351378159e-05 -7.122771703e-07
-0.0009518849346 0.0001407777254 4.848991063e-06
-0.001551991807 0.0002277234749 9.456139769e-06
-0.0002259069009 3.169369994e-05 -2.442024086e-07
-0.000235376905 3.32917312e-05 5.738469231e-06
-3.487869628e-05 1.037229014e-06 2.431627769e-05
-0.0002955873437 9.18951034e-06 7.521391642e-07
-9.813401951e-05 1.068912267e-05 5.461783969e-07
-0.0001483023128 1.272563303e-05 5.542317969e-07
-0 1.606632048e-05 -0.0002998030823
-3.073673733e-06 -8.343692404e-09 -3.073679333e-06
-0 1.66018661e-05 -0.0003097965484
3.097179981e-13 5.113181495e-07 -0.0001734587036
-0 5.117038996e-07 -0.0001735918911
-9.144614582e-06 2.318986311e-06 -9.144649571e-06
-5.486759752e-06 1.391384891e-06 -5.486769749e-06
0.000693219334 -0 0.0006138924488
0.0004788681204 -0 -0.0001498808039
0.001147246135 -3.448352421e-05 -6.094139192e-06
0.0001022551883 2.188273832e-05 -9.158213943e-06
0.001791385397 0.0006021605684 -1.454541906e-05
9.144614582e-06 2.318986605e-06 -9.144634576e-06
5.486759752e-06 1.391388354e-06 -5.486779746e-06
4.863687955e-05 5.76258091e-08 -1.514216826e-05
0.0005292933184 4.100532641e-05 -0.0001018547595
0.0001733149479 1.569304502e-05 -3.202536295e-05
3.074459695e-06 -8.3447736e-09 -3.074470898e-06
3.141452018e-06 -8.527055898e-09 -3.141462325e-06
0.0002728098426 -4.1550915e-05 2.582536201e-06
0.0002435301403 -1.239500617e-05 0.0001086034261
0.001192517348 -2.670189581e-05 1.204212153e-06
6.069411938e-05 8.709428289e-06 2.270468248e-05
4.006442176e-05 -3.95789491e-06 -5.14386576e-07
0.0003417911153 -3.539209258e-05 -2.794528382e-06
5.257533527e-05 -4.585179241e-06 -4.173292261e-07
0.0001496020806 -0 -3.069965968e-05
3.979507205e-05 -3.826984078e-07 -6.961524985e-06
5.855437034e-05 -5.631014884e-07 -4.259642475e-06
0.0001869714666 4.816672481e-06 -2.944317351e-05
0.0001075413159 -5.559997565e-06 1.27430692e-05
0.0001909069855 -1.089468442e-05 1.613371416e-05
8.183747219e-05 -3.14739224e-06 4.178449332e-06
2.685332986e-05 -1.129209121e-06 2.214391941e-06
5.421295254e-05 3.121403066e-06 -8.300875596e-09
0.0001111528079 4.527878595e-07 1.959478796e-07
0.0008129795186 0.0002581476223 -1.520984382e-08
2.075256504e-06 2.246684491e-07 1.725525675e-07
4.416625607e-05 9.081695854e-06 9.16788149e-06
6.11735043e-05 1.428209737e-05 8.933035852e-06
