# .PCD v0.7 - Point Cloud Data file format
VERSION 0.7
FIELDS x y z
SIZE 4 4 4
TYPE F F F
COUNT 1 1 1
WIDTH 53
HEIGHT 1
VIEWPOINT 0 0 0 1 0 0 0
POINTS 53
DATA ascii
-0.01704716869 0.002053321339 -0.0644788146
-0.02449195459 -0.04598489404 -0.07197635621
0.01399539877 -0.02349228226 5.894174038e-11
-0.130867362 -0.0306046214 -0.06397898495
-0.08947060257 -0.04598489404 -0.07197635621
-0.08947060257 0.04598489404 -0.07197635621
-0.1331865042 -0.02500573732 -0.02099310234
-0.08947060257 0.04598489404 0.007997371256
-0.08880095184 0.04598489404 0.01049655303
-0.1317832619 -0.02839344926 -0.01791626588
-0.01753183641 0.00172239996 -0.0649786517
-0.02449195459 0.04598489404 -0.07197635621
-0.1325886995 -0.02644897811 -0.06234183162
-0.1335045993 -0.02423780598 -0.05819641799
0.01332574897 -0.02599146217 5.894174038e-11
-0.08906881511 0.04098653421 0.01149622444
-0.08797109872 0.04098653421 0.01259393618
-0.1335045993 -0.02423780598 -0.02570709214
0.01399539877 0.02349228226 5.894174038e-11
0.01149622165 -0.02782098763 5.894174038e-11
-0.02516160533 -0.04598489404 0.01049655303
-0.02449195459 -0.04598489404 0.007997371256
0.01149622165 -0.02782098763 0.004998358432
-0.02699113451 -0.04598489404 0.0123260757
-0.08797109872 -0.04098653421 0.01259393618
-0.08947060257 -0.04598489404 0.007997371256
-0.1282301545 -0.03697143495 -0.02570709214
-0.08880095184 -0.04598489404 0.01049655303
-0.1282301545 -0.03697143495 -0.05819641799
-0.1299514771 -0.03281579167 -0.01791626588
-0.08697142452 0.04598489404 0.0123260757
-0.08647158742 0.04098653421 0.01299573015
-0.02449195459 0.04598489404 0.007997371256
0.01149622165 0.02782098763 0.004998358432
-0.02516160533 0.04598489404 0.01049655303
0.01332574897 -0.02599146217 0.004998358432
0.01399539877 0.02349228226 0.004998358432
-0.02749096975 0.04098653421 0.01299573015
0.01332574897 0.02599146217 0.004998358432
-0.02949031256 0.04598489404 0.01299573015
-0.02749096975 -0.04098653421 0.01299573015
0.01399539877 -0.02349228226 0.004998358432
-0.08697142452 -0.04598489404 0.0123260757
-0.08447224647 -0.04598489404 0.01299573015
-0.08647158742 -0.04098653421 0.01299573015
-0.1291460395 -0.03476026282 -0.06234183162
-0.1285482347 -0.03620350361 -0.02099310234
-0.08447224647 0.04598489404 0.01299573015
-0.08773903549 7.857797597e-16 0.01271474734
0.01332574897 0.02599146217 5.894174038e-11
0.01149622165 0.02782098763 5.894174038e-11
-0.02699113451 0.04598489404 0.0123260757
-0.02949031256 -0.04598489404 0.01299573015
