# .PCD v0.7 - Point Cloud Data file format
VERSION 0.7
FIELDS x y z
SIZE 4 4 4
TYPE F F F
COUNT 1 1 1
WIDTH 80
HEIGHT 1
VIEWPOINT 0 0 0 1 0 0 0
POINTS 80
DATA ascii
-0.0002000206965 1.401440863e-05 -5.94752296e-06
-2.199661438e-05 -5.58502543e-06 1.549229183e-08
2.6266355e-06 3.402751047e-06 -5.414544885e-05
-0.0001553705974 1.648529245e-05 -1.732451691e-07
0.0001022409981 4.234965155e-05 -1.282979298e-11
-4.020225116e-05 -1.176998652e-05 2.989305741e-07
-1.0772092e-05 4.544448262e-05 -0.0002320663072
-1.653978438e-05 3.347185286e-05 -0.0001296325633
-3.618323882e-06 4.595223936e-06 4.935314459e-06
-3.25940948e-05 3.793780637e-06 1.445529841e-06
0.000240674733 -0.0005222909543 1.500654311e-05
-4.779885716e-06 -1.95102159e-06 3.710344216e-08
6.58666794e-06 -8.696975804e-06 -1.514842922e-05
1.060780575e-05 7.430833257e-06 -0.0001688513582
2.10964797e-05 -2.393773213e-05 -6.901340875e-05
-1.786966183e-05 5.027199979e-05 -9.203437149e-05
-8.132174407e-06 6.925117641e-06 7.916255217e-05
-5.916194011e-06 6.953880842e-07 3.698057325e-06
3.918287521e-06 -7.550613288e-06 3.707355286e-05
1.086844009e-05 -1.6193174e-05 0.0001084339171
1.837239091e-06 -2.79001014e-06 1.729915969e-05
5.496478796e-06 -9.464443829e-06 6.151911427e-05
9.661624586e-07 -1.663687969e-06 1.0813155e-05
4.691964748e-05 -9.484154865e-05 0.0001205926925
1.239251018e-05 -2.327453708e-05 5.101513492e-05
7.84349919e-05 -0.0001531659288 9.90286669e-05
1.532584265e-05 -2.564831083e-05 8.121796441e-05
4.898433756e-05 2.028999595e-05 2.022786799e-11
-8.03543075e-07 2.084183895e-06 8.127611628e-07
-7.867638926e-06 2.04066384e-05 7.957884984e-06
-1.782602393e-06 4.63198325e-06 1.109749411e-05
1.764024978e-06 1.185797518e-05 9.55636199e-05
-6.274021952e-06 2.11824687e-05 4.878603002e-05
-3.223042757e-06 1.0915031e-05 2.531393406e-05
5.249434794e-06 2.17439477e-06 2.359417999e-11
-2.39383175e-05 2.652309492e-06 -6.1639546e-08
9.137581014e-05 -0.0001737882549 -3.447686072e-05
5.884747648e-05 -8.108471695e-05 -0.0001161156689
3.485676338e-05 1.443810762e-05 -6.188431193e-11
1.728483457e-06 7.159581752e-07 -6.369837099e-12
1.185087753e-05 4.908773471e-06 -4.283235599e-11
-3.517383648e-06 9.692234337e-06 -1.797923979e-05
-5.652930602e-06 1.56820881e-05 -2.884145659e-05
-3.141963264e-06 1.132088912e-06 -7.806696596e-07
-1.863371989e-05 5.251569847e-05 3.212892249e-05
-1.336408352e-05 3.83254449e-05 3.124685092e-05
-8.98925648e-07 7.787351899e-06 9.936118667e-06
1.550967057e-05 6.424338094e-06 5.597068119e-11
1.581904031e-05 6.5524849e-06 6.490492286e-11
-3.760188046e-05 9.967944297e-05 3.94660795e-05
-2.92607843e-06 8.012487458e-06 4.056768886e-06
-6.44132169e-06 1.784107589e-05 2.350050954e-05
-1.243076288e-05 3.454113286e-05 5.638197777e-05
-3.767190681e-06 8.201750989e-06 1.073554274e-05
-9.675375862e-07 2.115171336e-06 2.756536675e-06
-1.233112433e-06 3.444530358e-06 6.329308908e-06
-5.390533755e-06 1.511692453e-05 2.567413347e-05
-4.358402435e-06 1.247031039e-05 2.23756065e-05
-2.483543686e-06 6.441678527e-06 2.51203512e-06
-4.94037285e-06 1.479016905e-05 -1.627874513e-05
-1.826101482e-05 5.556837745e-05 -6.951110843e-05
-3.677499089e-06 7.807631223e-06 4.154926433e-07
-1.188640304e-05 3.283743092e-05 1.68750836e-06
-2.98970759e-07 1.778251196e-06 5.249501217e-08
-1.711824453e-07 3.861729986e-06 -1.609188866e-06
4.889703706e-06 2.02539929e-06 -1.076440694e-11
1.212737244e-05 5.023332056e-06 -3.530439081e-12
-2.54483833e-05 7.142398925e-05 -3.54140219e-07
-1.185603785e-05 2.42355262e-05 3.991683389e-07
-4.905531189e-06 6.472364477e-06 1.155676071e-07
-7.762485141e-06 1.018156306e-05 1.699970225e-07
-5.895309113e-06 1.600573852e-05 -8.455379979e-06
-2.279924532e-05 6.290348644e-05 -2.030553094e-05
-5.499082475e-06 1.541172978e-05 -5.196404752e-06
-2.666199004e-05 7.049690397e-05 -2.9923026e-05
-1.635852881e-05 4.327243924e-05 -1.824930983e-05
-2.741360749e-06 7.025169544e-06 -3.085055802e-06
-1.421674348e-06 3.75198157e-06 -1.597015463e-06
-2.980410165e-06 6.681028879e-06 -4.237557909e-06
-4.919526365e-06 1.102784273e-05 -6.994598053e-06
