# .PCD v0.7 - Point Cloud Data file format
VERSION 0.7
FIELDS x y z
SIZE 4 4 4
TYPE F F F
COUNT 1 1 1
WIDTH 80
HEIGHT 1
VIEWPOINT 0 0 0 1 0 0 0
POINTS 80
DATA ascii
-0.000259829264 -0 -0
-0.000395269421 -0 -0.002044647677
0 -0.0004202674968 -0
-0.000259829264 -0 -0
0 0 0.002189173448
-0 -0 0.003506261364
-0 -8.246770332e-06 -0
-6.303579225e-06 -6.303584223e-06 -0
-9.698156701e-05 -0.0001890471128 -1.254408603e-05
-3.427117735e-05 -5.804711848e-05 -3.427130848e-05
-9.241205001e-06 -9.241212329e-06 -2.563049503e-05
-1.642558541e-10 -5.113181495e-07 -0.004904602847
-0 -1.606632048e-05 -0.0002998030823
-0.0006014884283 -2.040963539e-07 -0.003113098938
-4.198201324e-05 -1.812461704e-05 -0.0001815313662
-0 -0 0.001049754584
-0 -0.0004552897917 -0
-0.0003132926617 -0 0.00162449507
-0.0001857341955 -0.0001308506807 0.001471885348
0 -0 0.0008731795798
-0 0 6.812613562e-05
-0.0001447722106 -0.0004897796357 0.0006967908626
0 -1.66018661e-05 -0.0003097965484
0 -5.117038996e-07 -0.004907069271
0 -0 0.0002308468204
-0.0001051310351 2.70500099e-05 0.00067325814
-6.518302532e-05 2.372467792e-05 0.0004302420852
0 -0 2.012507141e-05
-5.759482964e-06 5.759487963e-06 -0
-3.266318382e-05 5.657430197e-05 0.00022230403
-6.944574756e-06 6.944580783e-06 4.604919229e-05
-8.761705518e-06 8.761713122e-06 -3.127050165e-05
-8.083291627e-06 1.609804992e-05 -1.720975974e-05
-5.759482964e-06 5.759487963e-06 -0
-5.313529464e-06 1.058200873e-05 -0
-7.600626207e-06 -7.600632234e-06 5.748139379e-05
-5.838704225e-06 -1.243137794e-05 3.67150001e-05
-1.16763417e-05 -2.022402523e-05 7.962299206e-05
-6.303579225e-06 -6.303584223e-06 0
-5.153268232e-06 -1.097199353e-05 3.223134349e-06
-9.363075156e-05 -0.0001827228391 0
-0 -0.0007372577469 0.0006758448672
-3.090805811e-06 -0.000324173655 0.0003099929255
-0 0 2.87375841e-05
1.08267838e-05 -6.140174333e-05 7.337488661e-05
0.0001785695863 -2.811056431e-05 -0
0.0002377396523 -0.0001994873194 0.0004614777979
-0 -0 0.0004809120729
0.0001511780297 -0 -0
8.881728756e-05 8.528057166e-09 -8.881768711e-05
8.03224296e-10 6.949461043e-05 -3.090992088e-08
0 -8.24675297e-06 -0
0.0001672691758 -2.243484387e-05 -2.163547291e-05
0.0001088643779 9.134808445e-05 0.0001578215718
0 0.0009112741401 0.0004187765349
-8.651492459e-06 0.0006123408888 0.0003152740548
0 0.000226320501 1.181311821e-07
-1.238381038e-09 0.0002921247642 1.29515389e-07
8.690889421e-05 8.343772332e-09 -8.69092109e-05
0.0009493282358 -1.200593459e-08 -0.0004342612564
8.72618614e-05 -8.699325124e-06 -2.01147525e-05
5.486759752e-06 -1.391388354e-06 -5.486779746e-06
9.144614582e-06 -2.318986605e-06 -9.144634576e-06
0.0003276900907 -0 -0.0001498808039
0.0001511780297 -0 -0
7.635363134e-05 1.577804315e-05 0
4.410482236e-06 4.410464156e-06 5.893659938e-06
8.816234471e-05 0.0001015698136 0.0001099862053
5.852532079e-06 5.852508087e-06 6.192607302e-06
-8.345296751e-05 0.0005744408443 0.0003561660809
-6.40686027e-06 1.275940065e-05 4.250725884e-05
-5.313529464e-06 1.058200873e-05 -0
-4.987172175e-05 0.0001726849266 -0
-3.474767746e-05 0.0001191514791 -3.876596171e-06
-1.119084471e-05 3.19269168e-05 -1.117372185e-05
-4.74607534e-10 3.465830769e-06 1.385248832e-09
3.723978838e-05 6.591476481e-06 -4.204176854e-06
3.074213229e-05 4.072358932e-06 -5.729507208e-06
6.905059633e-05 1.426891255e-05 0
5.344965637e-05 1.115294617e-05 0
