# .PCD v0.7 - Point Cloud Data file format
VERSION 0.7
FIELDS x y z
SIZE 4 4 4
TYPE F F F
COUNT 1 1 1
WIDTH 68
HEIGHT 1
VIEWPOINT 0 0 0 1 0 0 0
POINTS 68
DATA ascii
-6.079268685e-05 3.180094318e-06 -1.415195652e-07
5.85732575e-06 -0.0001982702413 7.725048637e-07
-6.482582815e-06 1.384439417e-05 -4.257766423e-05
5.060899268e-06 -9.875447197e-06 6.325008611e-05
3.029876317e-07 -5.218030683e-07 3.391624795e-06
1.745159681e-06 -1.311939707e-06 4.745192111e-06
7.303565105e-06 -1.149302754e-06 2.187299256e-05
-8.639459742e-05 7.230679741e-06 5.057202747e-07
9.250406856e-05 -7.899077718e-06 -9.738835533e-07
-5.687762889e-07 4.532099559e-06 -1.005713079e-05
-4.97636649e-06 2.11341539e-05 -3.443706702e-05
-2.020138962e-06 5.021286383e-06 -1.235716859e-05
-2.39383175e-05 2.652309492e-06 -6.1639546e-08
-5.318078451e-06 1.172136026e-05 3.732046583e-05
-7.048960119e-06 6.042602883e-07 6.529809246e-08
2.060080979e-05 -3.030759168e-06 6.141643748e-05
-1.358544379e-05 3.523715759e-05 1.37412751e-05
-1.639732191e-05 4.741344607e-05 1.791382468e-05
1.417033089e-05 -2.865422626e-06 -4.576771838e-05
5.069520549e-06 -1.027243389e-05 -6.48257899e-05
8.659966918e-06 -0.0001855033329 -1.962847726e-06
8.978464492e-06 -6.621584366e-05 -3.742023394e-07
1.160252851e-05 -4.718669111e-05 2.239366005e-06
1.841035514e-06 -3.486759504e-06 2.62530062e-06
5.080036296e-06 -3.240037284e-06 2.301818683e-07
-3.141963264e-06 1.132088912e-06 -7.806696596e-07
-7.726280134e-06 1.731959584e-05 -1.098525018e-05
-2.483543686e-06 6.441678527e-06 2.51203512e-06
0.0001089774955 -7.218377945e-06 4.187643045e-07
1.879819358e-05 -1.024162233e-06 1.435957497e-06
-5.84202792e-06 2.358019353e-05 1.468514571e-05
-1.126668083e-06 4.861192431e-06 -7.583031125e-06
-4.692883812e-06 2.293284627e-05 -2.941284367e-05
-2.485143766e-06 5.695498188e-06 -3.42666235e-06
9.681538284e-06 8.9981489e-07 -8.066122336e-07
1.650512305e-06 1.695176222e-07 8.375585244e-08
2.112515591e-05 -6.947910996e-07 -1.056693685e-07
-3.618323882e-06 4.595223936e-06 4.935314459e-06
-1.948315731e-06 5.053430202e-06 1.970666235e-06
-4.676317947e-06 2.056788099e-05 3.516385844e-05
-5.113890837e-07 4.121471251e-06 8.954469761e-06
-1.782602393e-06 4.63198325e-06 1.109749411e-05
4.982409469e-06 -5.520931474e-06 -7.253211181e-06
9.026487237e-06 -1.070966078e-06 -1.800251209e-06
1.255780422e-05 -3.21535075e-06 -3.405098207e-05
-9.321610182e-07 2.548942091e-06 -4.724880811e-06
-6.967926026e-07 1.904502228e-06 -3.619519745e-06
-4.928227847e-06 1.367165036e-05 -2.514399415e-05
-2.613132782e-06 7.249227763e-06 -1.333230168e-05
-5.046555772e-06 1.258720382e-05 -5.362513635e-06
-4.905531189e-06 6.472364477e-06 1.155676071e-07
-7.762485141e-06 1.018156306e-05 1.699970225e-07
-4.996126496e-07 2.922710036e-06 3.009752238e-06
-1.712212979e-07 8.540614143e-07 1.081090979e-06
-2.999400133e-06 1.594930535e-05 1.618281808e-05
-2.890107444e-06 9.806963174e-06 -1.792618361e-06
-5.015582519e-06 1.507219716e-05 7.671830324e-07
-1.248345221e-05 4.254914196e-05 -8.445320873e-06
-3.677499089e-06 7.807631223e-06 4.154926433e-07
-1.185603785e-05 2.42355262e-05 3.991683389e-07
-1.03076077e-05 2.669844873e-05 -1.041346408e-05
-1.483173757e-05 4.351905355e-05 -1.637259932e-05
-3.258454705e-06 7.123436737e-06 9.283411174e-06
-4.035167531e-06 8.836986927e-06 1.163438381e-05
-7.667452991e-07 1.640411311e-06 2.137680388e-06
-7.01178173e-06 1.958645573e-05 3.598998095e-05
-9.484085785e-07 2.449361857e-06 4.073789111e-06
-3.798624969e-07 1.332868768e-06 2.340980071e-06
