# .PCD v0.7 - Point Cloud Data file format
VERSION 0.7
FIELDS x y z
SIZE 4 4 4
TYPE F F F
COUNT 1 1 1
WIDTH 40
HEIGHT 1
VIEWPOINT 0 0 0 1 0 0 0
POINTS 40
DATA ascii
-9.713189212e-06 7.223336667e-06 -1.351272914e-06
-9.192448539e-06 1.952057615e-06 -4.899485331e-07
-2.345766277e-05 -0.0004028543149 8.729671912e-05
-4.88239465e-06 -0.00024008048 1.601336649e-05
2.109723016e-06 -0.0004437601504 -0
1.076028433e-07 -0.0002141671349 3.341727135e-06
-3.929951565e-07 9.020513819e-06 -9.186908561e-05
-1.719954701e-05 2.355229732e-05 -3.724340097e-06
-1.048769623e-07 9.596492914e-06 -0.0001210556497
-2.987792674e-08 6.284537431e-06 -8.892063382e-05
1.521540769e-06 0.0002970631703 -8.340021287e-07
-1.889997717e-08 2.138373152e-06 4.85289272e-05
-1.965632558e-06 0.0003828538013 4.899250421e-06
-1.201150727e-05 1.851838503e-05 -3.052314116e-06
-3.182622278e-07 5.512469845e-07 -5.981388931e-07
2.162395715e-05 1.140236365e-05 -0
2.831921051e-05 8.488140171e-05 1.98375382e-07
9.862337773e-06 5.751359684e-06 2.167448941e-06
-2.252344292e-07 -5.059364074e-06 1.307338913e-05
2.264809523e-06 3.321797792e-06 1.185605878e-06
3.851899013e-07 2.184522127e-06 -2.084453577e-06
1.390413435e-05 5.970661664e-05 -2.592699029e-06
-1.232547113e-05 2.506451954e-05 -2.97918113e-06
-1.597997228e-05 9.014523555e-05 6.377312613e-07
-1.794966261e-07 8.285088695e-07 4.155873965e-06
-4.30027971e-06 6.753523064e-06 -8.216125497e-07
-1.749605628e-05 3.132465636e-05 -4.853999116e-06
-1.80228147e-05 3.121641574e-05 -5.013413358e-06
-7.911529167e-07 1.370316389e-06 -1.486877239e-06
-9.538231472e-07 1.652071528e-06 -1.792610858e-06
2.29069703e-06 6.141791144e-06 0
7.912036385e-07 6.63898754e-07 -9.70550857e-07
1.965813821e-05 1.036578268e-05 0
1.787847433e-07 -9.414672547e-07 9.065283988e-05
8.656177072e-08 8.722808549e-07 5.610076887e-05
8.972511412e-06 1.563382069e-05 5.278775097e-06
1.442961212e-05 2.48317968e-05 8.545973572e-06
2.114616837e-05 0.0001114674225 -5.883967865e-06
1.700751059e-06 2.134521903e-05 -5.728548911e-07
2.086612823e-07 1.183377926e-06 -1.129166078e-06
