# .PCD v0.7 - Point Cloud Data file format
VERSION 0.7
FIELDS x y z
SIZE 4 4 4
TYPE F F F
COUNT 1 1 1
WIDTH 54
HEIGHT 1
VIEWPOINT 0 0 0 1 0 0 0
POINTS 54
DATA ascii
-5.460908726e-06 3.691447438e-06 -0.0001002466722
-1.69211587e-06 -4.157477228e-07 -7.775567991e-05
1.144473995e-05 4.740543643e-06 -4.517278691e-11
-3.610001842e-06 -1.495250921e-06 0.0001565081119
-9.191461067e-06 3.378455187e-06 0.0001803334842
-7.041105502e-05 6.489848744e-06 -7.144545883e-07
-1.230557498e-05 1.265014933e-06 -7.081277609e-07
-9.776498078e-05 6.439145538e-06 1.688648778e-06
-4.179171476e-05 2.878046651e-06 5.295022026e-07
1.503743004e-05 -3.630358332e-05 -4.682958421e-05
3.453460261e-05 1.430466091e-05 -6.191313691e-11
1.768271412e-06 7.324384517e-07 -7.002235025e-12
5.186685573e-06 -1.200506924e-05 -3.104104765e-05
1.784775098e-05 -4.308826484e-05 -5.55815511e-05
1.605411965e-05 -3.875807892e-05 2.422068879e-05
7.731948071e-06 -1.820207113e-05 1.945307248e-05
6.909410242e-06 -4.246221714e-05 -1.630708657e-06
1.069925756e-05 -2.583030476e-05 1.614184046e-05
-2.879973266e-06 5.075813032e-06 3.762741556e-05
2.712335004e-06 1.12349026e-06 4.979352803e-11
-8.424243339e-06 9.67453146e-07 -8.930691365e-08
-9.469448153e-06 2.286125502e-05 1.428646455e-05
5.901352818e-06 2.444439821e-06 -1.099289403e-11
-1.687144922e-05 4.073128852e-05 -5.25411549e-05
-3.974466418e-06 9.5855233e-07 -1.458152371e-07
1.555441356e-05 -3.980611305e-05 -1.825182714e-06
2.751412898e-05 -6.642499961e-05 -1.267756682e-05
1.526945278e-05 -3.686372964e-05 -7.035641686e-06
-1.207607407e-05 2.536206082e-05 -1.699750227e-06
-8.347165474e-06 2.169093759e-05 -8.442827863e-07
-1.714133764e-06 6.178351446e-06 -1.939355979e-06
-1.543250158e-05 3.725734553e-05 -7.110722682e-06
-8.598529316e-06 2.075869091e-05 -3.961878308e-06
-4.003823808e-06 9.666095251e-06 -1.246876065e-05
-2.843585967e-07 1.801722159e-06 8.288348916e-09
-1.037125994e-05 2.503843583e-05 1.564698205e-05
-1.28888935e-06 3.111654093e-06 1.944529258e-06
1.70898896e-05 7.078880724e-06 5.752120193e-11
1.196934281e-05 4.957868633e-06 7.300830032e-12
2.44037368e-05 1.010836754e-05 1.130300692e-11
1.195898348e-05 4.953589135e-06 -5.919539935e-12
0.00010241731 4.242267915e-05 -8.457700018e-12
1.014048256e-06 -5.693548815e-06 -3.204396872e-07
1.066519474e-06 -6.531256007e-06 -2.542193918e-07
1.871296502e-06 -1.114470339e-05 -4.704073204e-07
3.21781105e-06 -7.768485113e-06 -1.002091907e-05
1.707315533e-06 -4.121824861e-06 -5.316935472e-06
-4.098988165e-06 9.969310545e-06 8.978495453e-07
-6.666423669e-07 1.609416882e-06 1.005749303e-06
-3.542662584e-06 8.197977189e-06 7.438027741e-07
-1.645015747e-06 3.971417537e-06 -7.579658929e-07
-5.151733641e-06 1.100792818e-05 -6.48866951e-06
-5.640738891e-06 1.36179469e-05 -1.756641146e-05
-4.172242047e-06 1.00726788e-05 -1.299320386e-05
