# .PCD v0.7 - Point Cloud Data file format
VERSION 0.7
FIELDS x y z
SIZE 4 4 4
TYPE F F F
COUNT 1 1 1
WIDTH 62
HEIGHT 1
VIEWPOINT 0 0 0 1 0 0 0
POINTS 62
DATA ascii
-4.050952139e-05 2.144814894e-06 -1.754331616e-07
8.48302608e-06 -0.0002107022555 1.619508875e-06
-5.773647588e-07 1.156946246e-06 -3.552335363e-06
-5.397559771e-06 1.145230859e-05 -3.565687437e-05
-9.495919083e-05 7.522365182e-06 -2.88192526e-09
-5.714459156e-07 4.255696737e-06 -9.35833372e-06
-1.674839353e-06 4.161350283e-06 -1.011387553e-05
5.199487316e-06 -1.026915567e-05 -6.509068833e-05
8.983844784e-06 -0.0001839755846 -0
1.391727287e-05 -3.008002342e-06 -4.596556287e-05
-3.240998993e-05 3.290464752e-06 -3.115258975e-07
3.923474557e-05 -1.690752034e-06 5.736825387e-05
5.301480439e-06 -6.525112108e-05 -0
6.116601556e-06 -3.636792473e-05 -1.399628344e-06
7.400567625e-05 -6.893626335e-06 -1.350919255e-06
-4.552539157e-06 2.346114715e-05 -3.003345317e-05
-4.158297971e-06 1.827948501e-05 -3.092198633e-05
-8.795588387e-07 3.956364419e-06 -6.28730945e-06
4.971177647e-06 -5.493818195e-06 -7.218232051e-06
8.879892735e-06 -1.131688714e-06 -1.870199448e-06
1.198827407e-05 -3.228908673e-06 -3.31564545e-05
-5.5836179e-06 1.174160395e-06 -8.063203379e-07
-1.125652064e-06 1.794984581e-06 -3.878398894e-06
-9.213370141e-06 2.065313318e-05 -1.309958856e-05
-1.12574079e-06 2.994885704e-06 -4.383805894e-06
-3.644793251e-06 9.71041781e-06 -1.878410308e-05
-5.951507806e-06 1.651040555e-05 -3.036487129e-05
-1.486149787e-05 4.359492586e-05 -1.64021217e-05
-2.483546647e-06 6.441679974e-06 2.512030669e-06
-8.070302335e-06 1.039300095e-05 -7.53503703e-09
-1.561666404e-05 4.715124971e-05 1.76047691e-05
-3.890722874e-06 1.570731736e-05 1.004201329e-05
1.976738243e-05 -1.283434976e-06 8.615000585e-07
0.0001110849839 -7.804800436e-06 5.041413474e-07
-7.35432714e-06 6.108001478e-07 4.606764762e-08
2.785185552e-05 1.704621712e-06 5.151577064e-05
5.204909569e-06 -1.02561122e-05 6.503407691e-05
-5.402285112e-06 1.201417229e-05 3.771381352e-05
-5.05469815e-06 1.243916933e-05 -5.463216435e-06
-1.030538329e-05 2.669268222e-05 -1.041120742e-05
-4.675595058e-06 6.178334968e-06 -3.684627114e-08
-3.746161774e-06 7.784099542e-06 -1.15503176e-07
-1.178745181e-05 2.42590294e-05 -1.318186588e-07
-1.214241614e-05 4.110536011e-05 -8.175352982e-06
9.522136925e-06 1.014675536e-06 -8.658786445e-07
7.811756096e-06 2.696225745e-07 -3.523783635e-07
-5.727137935e-06 1.879147236e-05 2.514247054e-06
-4.719560094e-06 1.519182249e-05 -2.112981066e-07
-3.906060744e-06 4.766789348e-06 4.958335596e-06
-4.180496566e-06 1.084313709e-05 4.228451491e-06
5.801604938e-07 5.414770873e-06 1.083856248e-05
-1.900897112e-06 4.921429809e-06 1.195780809e-05
-3.65811498e-06 7.997154405e-06 1.042205472e-05
-4.102319216e-07 3.591832778e-06 5.464179496e-06
-2.529739349e-06 2.361334023e-05 3.681228115e-05
-7.010434618e-06 1.958270901e-05 3.598305884e-05
-2.441331812e-06 5.587957431e-06 7.647571116e-06
-8.969454215e-07 1.960849444e-06 2.55541831e-06
-1.145894198e-06 2.621285756e-06 3.425899059e-06
-7.852806195e-07 1.814308684e-06 2.323506092e-06
-4.947091637e-06 1.28314879e-05 5.003839859e-06
-6.919405089e-06 1.79471658e-05 6.99877926e-06
